-0.19427928 0.22747180 0.31732327
-0.28961825 0.04320702 -0.33258304
-0.26274273 0.65295863 0.01852822
0.12267695 -0.55247092 -0.13689649
-0.14065726 0.36913270 0.43443266
-0.00916465 -0.28836310 -0.32440904
-0.28318095 0.35913154 0.17195806
0.37463835 -0.02693380 0.16555184
0.42729357 0.31144416 0.29381102
-0.18225385 0.59852338 0.13698822
0.42175117 0.27767587 -0.21537846
-0.28951973 0.10112487 -0.10677999
0.02854227 -0.01849652 -0.24897340
-0.40649608 -0.35096738 -0.38932183
0.22737388 -0.26672235 0.29430652
0.16430576 0.49476084 0.41273573
-0.28292754 -0.18388045 -0.13288984
-0.03527349 0.68566918 0.09593366
0.29157239 -0.78235781 -0.01134766
0.37953046 0.13261405 0.34245637
-0.38571450 0.65070415 0.01067854
0.48906186 0.47247037 0.15952796
0.15113838 0.34519339 -0.37812644
0.04284749 0.62721086 0.35507059
0.11642461 -0.05039860 0.42223817
-0.31617588 -0.25572017 -0.16833259
-0.25099432 -0.26673344 0.02433756
0.11432300 0.02241474 0.42841890
0.04573502 -0.16359375 0.27007219
-0.32500759 0.10896179 0.15097898
0.09218666 -0.82572055 0.03626161
0.16341759 0.71482944 0.17773852
-0.05060355 -0.23032561 -0.18869150
-0.04697637 0.16483480 -0.36253300
0.16525257 -0.80142820 0.09090662
-0.07046691 -0.07955451 0.02376049
-0.27601966 0.59858978 -0.03598385
-0.36716908 0.29760480 0.09453283
-0.19978912 -0.77610505 -0.27776673
0.54385942 0.68603897 -0.07283567
0.44002238 0.25256681 0.33101839
-0.04011354 0.06914727 -0.29065841
0.19124942 0.47129762 -0.34465769
-0.32681018 -0.22423032 -0.14432417
0.33018604 0.10924689 0.38469043
0.25826749 -0.43052834 0.03348970
0.20523201 0.76549339 0.02147343
0.14104462 0.50947511 -0.32149214
-0.14294305 -0.74245143 0.22211556
-0.04346481 -0.76725101 -0.09249780
0.32705978 0.03586885 0.28366691
0.07294157 0.29579917 -0.41474339
0.47675672 0.11495070 0.04535674
-0.13513644 0.22804011 0.35471231
0.24248724 -0.06696783 0.31101286
0.00633468 0.52070034 -0.33273417
-0.34046572 -0.60520935 -0.33775097
0.03964134 0.00099813 -0.28939134
0.37314072 -0.00374748 -0.01262117
0.43505746 0.05667347 0.09946238
-0.18000418 0.27601579 0.30169356
-0.18074040 -0.00579910 0.01873852
0.03355831 0.73972106 0.18386193
-0.28417516 -0.69977510 0.22118348
0.14429623 -0.75449097 -0.21928164
0.44606340 0.14708582 -0.16735408
0.03320732 -0.23141888 0.02005372
-0.10572201 0.24117151 0.34726799
-0.15860948 -0.76345551 0.24378079
-0.32174906 -0.68074691 0.12870945
-0.34966895 -0.69746256 -0.16997698
0.16835079 0.65079641 -0.20457920
0.16308351 0.54547465 -0.29593387
-0.34636292 -0.06568108 -0.38969159
0.29343915 -0.05097544 -0.14191800
-0.28675106 0.52413404 0.06164818
0.17105915 0.30138108 0.44626108
0.28030455 0.05392122 -0.23620301
0.02379609 0.15057418 0.53051668
0.10678206 -0.69416261 -0.19619715
0.33110988 0.62803149 -0.18100913
0.44481996 0.06917407 0.21304934
-0.42173901 -0.32540825 -0.03633140
-0.08435959 0.64791977 0.18886654
-0.16910799 0.39832559 0.33948863
0.48185626 0.12031098 0.17069352
-0.04777971 0.72615588 0.04631640
-0.37051260 0.40080410 0.01074591
-0.01540245 -0.06221258 -0.16024664
-0.34545812 -0.67587662 -0.27863011
-0.38858667 0.54421508 -0.17111748
0.06931628 -0.79993355 0.22961013
0.56600702 0.84466112 0.06730379
0.26489294 0.21911475 -0.31621829
0.28228462 -0.05189972 0.28960335
-0.44187835 0.29659531 -0.15722294
-0.38060209 -0.66169560 0.07071323
-0.24704087 -0.02179448 -0.29112762
-0.03749254 0.35081738 -0.37743962
0.32586208 -0.05596118 0.22479302
0.21309811 -0.58423090 -0.03776941
0.11503538 -0.20468721 0.34570634
-0.46024865 0.38923424 0.00548924
-0.38649890 -0.70648217 0.10207807
-0.28524795 0.36331686 -0.23404509
0.05611202 -0.69261599 -0.26589558
0.14403848 -0.57496691 0.22223510
0.39972913 0.16687500 0.34623605
0.03966718 -0.79399991 -0.27399695
0.03718763 -0.57110739 0.24782737
-0.23143309 -0.59972501 -0.40720376
0.53945869 0.44436339 0.07534482
0.43291733 0.05071730 0.08904301
0.39572671 0.83393919 0.06161985
0.11325883 0.69121647 0.10587811
0.15767519 -0.10383755 0.30729625
-0.46935922 0.60609818 -0.03598434
0.46617132 0.20555878 0.02775759
-0.18833677 -0.55598915 -0.44124267
0.38912532 0.13536382 0.39507720
-0.31844348 0.19837967 0.17969114
-0.20571063 0.48518720 0.33644098
0.26908225 0.22876152 0.43932301
-0.17237112 -0.02108971 0.07278264
0.19977032 0.20949018 -0.37776095
0.42370301 0.72561610 0.09749948
0.14251575 -0.81556118 0.13791020
-0.33055323 0.13135163 -0.03483187
0.21890959 0.66200209 0.22545139
0.07029200 0.21770474 -0.39890417
-0.25843519 0.47824836 0.15916704
0.29054704 0.35815963 0.33552030
-0.09856729 -0.43047425 0.20695779
0.29311219 0.02085366 -0.21353745
-0.45898819 -0.39511517 -0.19910058
0.00365795 0.26982868 0.41193306
0.22928922 0.06957793 0.50334024
-0.24906901 0.51206326 0.16733253
0.25331801 -0.13362335 -0.00313264
-0.33114833 -0.21358253 -0.23272708
-0.08626964 0.10940318 -0.31029835
0.50553375 0.15569799 0.15644661
0.05848110 0.45067862 0.46141481
-0.20574380 -0.00911594 -0.09027369
-0.44249487 -0.42454383 -0.02601271
-0.44586739 -0.26903215 -0.27998483
0.21123587 -0.72655535 0.02841719
-0.11173685 -0.79056478 -0.09524018
0.21841648 -0.28005546 0.27144659
0.04810273 0.71272779 -0.00622031
-0.22621441 -0.51652455 -0.41105032
0.48805261 0.41410136 0.08644976
0.32776156 0.02321778 -0.18643169
0.40524825 0.59453201 -0.13577284
-0.31332576 -0.01807362 -0.16436577
0.48074383 0.07837313 0.08841749
-0.42846283 -0.44065729 -0.32253081
-0.22972029 0.53364766 0.14010420
-0.11702339 -0.18932776 -0.13751701
0.13060552 0.24111292 -0.40056232
0.57706606 0.74649251 -0.00063547
-0.03374672 0.33978817 0.46707734
0.45344257 0.38572970 -0.13681377
0.29472300 0.65983903 0.22553933
0.21428171 0.18851298 -0.32763323
-0.41378048 -0.50644469 0.06223021
-0.01998535 0.70509005 -0.04069319
0.08187663 0.70891345 0.19181240
0.03577832 -0.35198674 -0.29615784
0.23684834 -0.68719852 0.05130573
-0.06351577 -0.34091136 0.26505101
-0.23354155 0.10766257 0.23084533
0.30676696 -0.32539150 0.03789311
0.03896039 -0.47121814 -0.30335262
-0.14956675 -0.57459867 0.18479212
0.35679960 0.32573393 0.36770043
-0.14642219 -0.60705125 0.17849246
-0.45046115 -0.61474717 -0.19813213
-0.32048082 -0.32967320 -0.41243923
-0.46726948 -0.41965625 -0.13088731
0.46401098 0.46137571 -0.09727284
0.33091038 0.21120669 0.40560529
-0.28430924 -0.41493392 -0.44515610
-0.19509427 0.59646344 -0.17881972
-0.00844375 0.44098073 -0.40018216
-0.13196298 0.66157520 -0.13636713
-0.33673993 0.30666697 0.09300424
0.41374162 0.03359210 -0.02828366
-0.34106362 -0.19218828 -0.37377438
0.16899729 -0.72268379 0.07674676
-0.37802231 0.09648854 -0.14819653
-0.27747577 -0.78298283 0.18891661
-0.05161846 -0.12053312 0.16716787
0.29595429 -0.33674175 0.22949143
-0.04523230 -0.70323205 0.31530285
-0.35435373 -0.53621411 0.08977240
0.40465030 0.82113075 -0.06133743
0.53939861 0.76547933 0.05958332
-0.06624404 -0.29364809 0.15866640
0.28752059 0.64715815 0.25848627
-0.00146327 0.68118060 -0.12174787
-0.10934417 -0.71850264 0.21016288
-0.06064129 -0.76279318 0.27021366
-0.39551461 -0.02899435 -0.24007535
-0.23914534 -0.73631728 -0.28594825
-0.37645376 -0.67889333 0.10110812
-0.08881604 -0.74042606 0.30529606
-0.41851711 0.32775128 0.05157708
0.07377382 -0.43733764 -0.14912833
0.30071899 0.42018169 -0.33493167
0.44202739 0.16700606 -0.05451795
0.02595873 0.59724450 0.34278786
0.14424737 0.16886464 0.52666879
0.47237399 0.10043323 0.12462912
-0.34407032 -0.75677586 -0.18468931
-0.07958753 0.33327848 0.36293796
0.32170984 0.05072102 -0.20252457
-0.15322375 0.07360652 -0.20914546
-0.42103711 0.28121585 -0.19370778
0.15245244 0.53268796 -0.29385278
-0.50899875 0.43429852 -0.08948173
-0.15003598 0.21113953 0.36400759
0.08379571 -0.57897639 -0.23506972
0.38322529 0.04522809 -0.11470072
0.07596747 -0.62921929 -0.17797479
-0.17841645 -0.77853966 0.19516437
0.26759341 -0.27241713 -0.02602090
-0.02225753 -0.54337978 0.25861642
0.08738305 0.02940958 -0.29715115
-0.42160451 -0.36268193 -0.06621210
-0.38141134 0.19428642 -0.06126142
-0.09914246 -0.01217762 -0.21153146
0.14644095 0.42255333 0.42385775
0.02897142 -0.08357495 -0.21067989
0.04392251 -0.06620095 0.37763298
0.49557042 0.30221674 -0.02447511
0.31978315 0.00753772 0.24977240
-0.27222416 -0.17310998 -0.18016061
-0.19061975 -0.61386478 -0.40476790
0.41672030 0.02402993 -0.03761916
-0.36221412 0.15467115 -0.10215487
-0.19026637 -0.00937087 0.18700819
-0.31698519 -0.75771248 -0.13370490
0.05362349 -0.52548730 -0.35283110
-0.33177459 -0.45046067 0.15757367
-0.28299588 0.02127397 -0.18829864
0.02692232 -0.01595169 0.40519559
0.44317400 0.61182463 0.10117666
0.31546083 0.55371535 -0.23190874
0.21891625 -0.66163313 -0.08967951
0.45543611 0.13529176 0.04436833
0.24903379 -0.12464286 -0.01838205
-0.24382046 0.60045040 0.03274246
-0.38789529 -0.67577052 -0.25134912
0.09818343 0.69550848 -0.08563149
-0.16833517 -0.22248343 -0.23239735
-0.49881268 -0.34049731 -0.16059700
0.14202666 0.72190571 -0.01858761
-0.29262447 0.46181932 0.08861813
0.24268048 0.39656812 0.42125171
-0.45821854 -0.36568686 -0.00409899
0.17317489 -0.66457570 0.09483420
0.32977971 0.12317309 0.42349151
-0.11147577 -0.24856135 -0.33444768
0.12627432 0.53836298 0.38753396
0.32397264 0.50185108 -0.25153732
-0.26844609 -0.44414359 -0.39881843
-0.36270592 -0.34296423 0.08059157
-0.26141274 -0.79276025 -0.22940940
-0.01902055 -0.45529166 -0.41870239
-0.25063887 -0.42623046 0.13567248
-0.02958158 0.43040681 -0.36871263
0.01048249 -0.79048228 -0.30324209
0.44494945 0.49945730 0.19850545
-0.48257613 -0.33152682 -0.23684216
0.29431459 -0.06127141 -0.16706049
0.00149377 -0.57274461 0.28370559
0.00461763 -0.79865086 -0.29691932
-0.00549038 0.29159200 -0.39057687
0.22684030 -0.10725929 0.23104212
-0.29086721 0.45460096 0.12764063
-0.36961427 0.48542047 -0.19863889
-0.24056968 -0.76112235 -0.11384398
-0.01144136 0.21325155 -0.39787310
0.10844891 0.70979214 -0.02260283
-0.42118457 -0.61781871 -0.11867915
-0.28882813 -0.24430951 -0.29590350
0.17626813 -0.36209524 -0.12288825
-0.30779719 -0.50497186 0.12956740
-0.13165481 0.62765694 0.18081881
-0.24712604 0.10801201 0.23221862
0.41400003 0.19543929 0.34250814
-0.06138039 0.15265085 -0.31288946
-0.02420488 0.61009276 0.35597333
-0.32158962 0.49698201 -0.15882723
-0.19027320 0.07331486 -0.12544711
-0.38049614 -0.14631094 -0.24314219
0.20440906 -0.66341770 -0.04564188
-0.40526223 0.49760407 -0.19932470
-0.44805968 -0.49368092 -0.24284926
0.49589953 0.79796100 -0.08078150
-0.46896091 -0.22930473 -0.36663905
0.31528670 -0.09533946 0.15070012
0.17896815 -0.56415832 -0.11857367
-0.02060355 0.55053377 0.33772439
-0.19028917 -0.42923486 0.12832347
-0.32306302 0.44807035 0.04326152
0.22769053 0.25464994 0.41680238
0.27893165 0.10163943 -0.28498697
0.10805716 -0.67032969 -0.16079870
0.02430511 0.66435099 -0.07452717
-0.34844470 -0.78248060 -0.15793295
0.12204670 0.71091330 0.16485581
0.28870556 0.40953195 -0.27250132
0.07610130 0.72085309 0.14438333
0.13541466 0.71775603 0.04662175
-0.05980434 0.70094180 0.13968560
0.26913255 0.02960128 -0.24974906
-0.42658335 -0.10914858 -0.40716553
0.41942069 0.17311804 -0.18312229
0.35804072 0.36466616 -0.25539029
0.29816395 0.33177108 -0.27002063
0.54257423 0.61768973 -0.11008193
0.04915369 0.14940655 -0.33389577
0.11233339 -0.02646928 -0.21407872
-0.38662049 -0.35764536 0.07374754
-0.18227777 -0.71949327 -0.31975377
-0.13938445 0.36413324 0.37921461
0.22141105 -0.38404477 0.27799842
-0.38083321 -0.24000272 -0.17414570
0.00191817 -0.62063265 0.24045075
-0.32648882 -0.24758565 -0.11666717
-0.30392402 -0.54094708 0.15672770
-0.38291290 0.33863130 -0.17155588
0.37590262 0.84893799 0.06054252
-0.22734949 0.09099679 0.18724860
-0.50258106 0.45112133 -0.01672906
0.38712505 0.06994152 0.29154754
-0.21191971 -0.78700209 0.18709819
0.09309569 0.39604530 -0.34815383
-0.34893703 -0.24804071 -0.29533496
0.13364634 -0.46949354 0.29189047
-0.09151129 -0.82501626 0.25153294
-0.40400261 0.22591811 -0.20124865
-0.36632580 -0.22785094 -0.13700499
0.19262709 -0.34219491 -0.09530720
0.16578719 -0.54553294 -0.09736453
0.09564298 0.39251933 0.43231314
-0.42179060 -0.14051937 -0.39765501
0.11162639 0.03561239 0.46933612
-0.10746792 0.30183640 0.41005570
-0.21313354 0.00856511 -0.02795649
0.16017659 0.62174988 -0.22340757
0.06449094 -0.39139038 -0.25259992
-0.33711129 -0.19844663 -0.27555263
0.27781948 -0.23358527 0.14222807
0.47090083 0.33702058 -0.09404586
-0.36184123 -0.72682691 -0.01694794
-0.14179671 0.11038198 -0.33454144
-0.35883006 -0.73818803 0.06019611
0.02220835 0.15093775 0.53649366
-0.39391169 0.16661696 -0.02732505
-0.36383212 0.18465330 -0.06251297
-0.35194480 0.46532679 -0.22635397
-0.35521987 -0.41410446 0.14353277
0.39605412 0.59232879 0.09380663
-0.06318437 -0.24176019 -0.05782707
0.58900559 0.58053184 -0.00108394
-0.05839854 0.17630735 -0.35142311
0.24703288 -0.27117002 -0.03372046
-0.34126139 -0.22779134 -0.19041739
-0.18608610 0.01831828 -0.20938811
-0.39839205 0.61845255 -0.08858931
-0.42905861 -0.34796757 -0.33614293
-0.34684786 0.13628362 -0.15861838
-0.12915879 -0.62532866 0.18156642
0.11738531 0.68264258 -0.09291147
-0.48041081 -0.33754265 -0.30268991
-0.16464278 -0.77803731 0.01878158
-0.15948617 0.49333134 0.30964237
-0.19711861 -0.78059244 0.22846137
-0.22932550 0.46939188 0.27982819
0.10109232 -0.51695776 -0.20388496
-0.25494599 -0.78396630 -0.06717828
-0.09562714 -0.23754141 0.03132467
-0.14881195 0.01035353 0.29114652
-0.38608697 0.60800517 -0.14403382
0.14803927 -0.63662779 -0.08575892
-0.35239980 -0.23463207 -0.05190724
-0.08298695 -0.04679725 0.21348220
0.26486483 0.49308008 -0.29270083
0.42078179 0.25957319 -0.18729441
-0.14284922 0.17822886 0.37356272
-0.22190252 0.49266845 0.20832495
0.15623295 0.72043180 -0.05437946
0.23122096 -0.79558039 -0.05430661
-0.07396574 -0.79299080 -0.25014541
0.37149841 0.06954679 -0.19165570
-0.38049182 -0.61555612 -0.16968505
-0.14316720 -0.48807755 0.19129832
-0.00688029 -0.09748428 -0.08512235
-0.26006773 0.30441788 0.26322404
0.49550393 0.35138026 0.10624170
0.50366700 0.26559827 -0.04459030
-0.31904122 0.13846681 0.06329657
0.13530341 0.71188676 0.05095604
0.02519597 0.72773683 -0.02108604
0.02602506 -0.47109917 0.29404318
0.48210749 0.31993967 0.04952425
-0.25700322 -0.80055034 -0.02634466
0.07700331 -0.77789378 -0.25979701
-0.06614214 -0.24713647 -0.22369498
0.09770852 -0.10412127 0.28918943
-0.21266223 -0.68998504 0.23890971
-0.16213286 0.20876969 -0.28289858
-0.15606366 0.20079020 0.35102764
-0.27692908 -0.50651884 -0.43229145
-0.26356056 0.06400837 -0.23073077
-0.04555678 -0.22003838 -0.00601839
0.27024984 -0.00862353 0.34575292
-0.05937894 0.47492266 0.42027697
0.44483069 0.33907339 -0.16395949
0.21303429 -0.02484285 0.34293124
0.29964185 0.61399031 -0.18208793
0.18944284 -0.58192909 -0.11225957
-0.23959535 0.38072801 0.31381533
0.18289874 -0.27736375 0.29906076
0.16265211 -0.57049203 0.19274795
-0.35747275 -0.57504630 0.15897626
-0.40028337 -0.53988683 0.11807191
-0.32803941 -0.51620603 -0.36093047
-0.25586081 0.57466531 0.20796365
-0.16927719 -0.04119129 0.06749062
-0.49305689 0.58084345 -0.05090228
0.13609307 -0.71550751 0.18252376
-0.09755443 -0.76459408 0.29248038
0.25731853 -0.37200281 -0.02875633
-0.27042577 0.39727664 -0.24913311
-0.01029126 -0.67607319 -0.30621889
-0.25290033 -0.69987774 -0.34670448
-0.02709523 0.69998586 0.19334058
0.14504026 -0.04634789 0.43962201
-0.38645428 -0.30288473 0.03990512
-0.36843058 -0.71961880 -0.19206002
0.11298997 -0.39198041 -0.21502596
0.32979220 -0.02298020 0.13354520
-0.15658206 0.65107381 0.15588136
-0.16822056 -0.28469160 0.09889901
0.34872702 0.64855504 0.12131994
-0.26516354 0.37571755 -0.22606322
-0.09714761 0.62766922 0.23301385
-0.04939071 0.30664092 -0.34298700
-0.42134491 -0.37149379 -0.43655875
0.26161847 0.46904907 0.37754247
0.30053833 -0.78134108 -0.03152012
-0.28383875 0.42420441 0.07458283
0.53951657 0.74035966 0.01837179
0.07158865 0.33267179 0.50256646
-0.38501468 -0.08209042 -0.39821944
-0.26711395 -0.23179549 -0.29980004
-0.03168147 -0.76299548 0.04229343
0.39315417 0.83602273 0.01132646
-0.32620433 0.15836784 -0.11242649
0.11316650 -0.37408650 0.33547893
-0.30186060 0.20341815 -0.27983060
0.23935342 0.16476566 0.50833595
-0.16228145 -0.27548972 -0.36733857
0.22882359 -0.01605260 0.40998572
0.24126858 0.50603306 -0.28326052
0.11985283 0.67385781 -0.11041592
-0.02524932 0.41063204 -0.39748245
-0.07659505 -0.20956621 -0.17575693
-0.07657983 0.45987934 -0.35900483
0.18844870 -0.51840544 0.34755763
-0.43772563 -0.52405798 0.01888658
-0.17771463 -0.53791976 -0.42684412
-0.11398914 0.50275838 -0.23622674
0.17441054 -0.72515941 0.09298693
0.09848292 -0.53748012 0.24716260
0.37373278 0.72995102 0.10682061
-0.28058299 -0.03694990 -0.26225328
-0.03616669 -0.06180930 -0.11975297
-0.01750848 0.41150784 0.42815018
-0.28122213 -0.25910443 -0.35780528
-0.14221434 0.64333141 0.09408900
-0.41222662 -0.60080087 -0.21398938
0.30952445 0.74657059 0.05624133
-0.37533420 0.15827475 -0.15865289
0.10192648 -0.19852434 -0.04278603
0.49274379 0.22102353 -0.14075185
0.47889283 0.22676472 -0.06747834
0.51378858 0.31952226 0.08402044
0.08816757 0.72192109 0.21390989
-0.02857499 -0.68286872 -0.31491470
0.30580521 0.00942194 0.31001344
-0.37715238 -0.24310690 -0.09976338
0.37232459 0.06452542 -0.16908379
0.14976792 -0.79978144 0.07176125
-0.04202366 -0.08798552 0.35990646
0.18047038 -0.02751509 -0.18615207
-0.45777026 -0.30130100 -0.10614663
0.26447174 -0.18099658 0.04694362
-0.20410088 -0.37449810 -0.42339078
0.42649037 0.28166822 -0.20372710
0.36718428 0.32637450 0.34873059
-0.10277173 0.31764331 -0.35608342
-0.22811544 -0.78768802 -0.03009422
0.08669289 -0.16188885 -0.08661574
0.25379702 -0.51704025 0.13406917
0.28384665 0.33016723 -0.33703485
-0.21699533 0.39769772 0.33593997
0.38320333 0.56279254 0.16784196
-0.48576891 0.48254320 -0.11145912
0.43831292 0.28816453 -0.21738574
-0.38794029 -0.18172367 -0.26708403
0.08122709 -0.77831495 -0.11267535
-0.04194671 0.66991556 -0.23609835
-0.16173130 -0.41658717 0.14758486
0.19304223 0.70124996 0.18989097
-0.06667989 -0.65137601 -0.38345182
-0.08122368 0.67095447 0.10308788
-0.01088675 -0.27258563 -0.03065517
-0.45553175 -0.48021790 -0.11817665
-0.34111750 -0.67580640 0.06079930
-0.37100226 0.02530099 -0.18429759
-0.01345988 -0.18608512 0.05160692
0.26050580 -0.50873542 0.14214605
0.03500691 0.29547095 0.47889039
0.13699606 -0.54207063 0.22378011
0.24723157 -0.80834985 -0.08829674
0.55741990 0.70599341 -0.04770052
-0.05846990 -0.32083866 -0.38157353
-0.44222608 -0.40259784 -0.28511891
-0.13556623 0.35340953 -0.28341144
-0.03854315 0.48886126 -0.35566533
-0.02314850 -0.11017187 0.27143204
0.08391547 -0.76138484 0.10086916
-0.50140280 -0.21441078 -0.33414286
0.16562112 0.28532717 -0.38992196
0.15203078 -0.03587812 -0.22529340
0.05040860 -0.60567880 -0.27438247
0.51456773 0.46277377 0.11190322
-0.04912855 -0.30202362 0.23754385
0.05392598 0.28546983 0.54772925
0.00139949 -0.59858334 0.22228412
-0.04224954 0.66716897 0.23960041
-0.25994465 0.04519289 0.14536762
0.19373462 0.35207072 0.38048020
0.06117063 -0.79131901 -0.23567027
-0.07514270 -0.50917494 -0.43685153
0.15875851 0.25938457 0.48911861
-0.17462853 -0.35584733 0.15577695
0.45957777 0.17775197 -0.04948550
-0.25142002 -0.21977711 -0.02356302
0.35674483 0.00265642 0.11641422
-0.01588573 -0.42287141 0.30729872
-0.38921180 0.52602708 -0.17565495
-0.36659786 -0.22882324 -0.08130966
-0.38782090 -0.50514615 -0.31652474
-0.13027334 -0.78132033 0.18848570
0.09078101 -0.80952334 0.09469771
0.23703465 -0.81086636 -0.04600953
0.37868223 0.49197018 0.25499955
0.09743286 -0.72356498 -0.18880591
0.07220960 -0.04380716 -0.22014642
0.25437528 0.11914975 0.48448336
-0.00265176 0.32240388 0.49860847
0.06180251 -0.10346422 -0.04772885
0.07101114 0.07228556 0.51078433
0.03091215 0.28097138 0.52380025
-0.04593153 -0.60236037 0.23383690
0.09039551 0.01438431 -0.30532476
0.03911009 -0.19005281 -0.00150255
-0.10501103 0.24500299 0.37060955
0.20227243 -0.38132274 -0.07647029
-0.23526683 0.01864715 -0.20882398
-0.23880813 0.36649123 0.28936699
0.24825551 -0.21003817 0.03215472
0.14315748 0.13164720 -0.33262065
0.00923846 0.20259506 0.49276847
-0.20096248 -0.21823567 -0.19832057
0.39083365 0.02887735 -0.04713974
0.02523390 0.54213703 -0.35146281
0.07412486 0.29086208 0.50287342
0.25957000 -0.01072105 0.32866326
-0.19841070 -0.01395262 0.16034669
0.16960108 0.64906073 -0.17213103
-0.14794685 -0.27875295 -0.36195272
-0.34076914 -0.05397521 -0.32421979
0.32136506 0.63629961 0.21220239
0.44851935 0.87333870 0.07008314
0.07620624 -0.80984437 0.25449359
-0.15271562 -0.79332936 -0.24769646
0.12594517 0.47447318 -0.30315250
0.27682367 0.55859244 0.36623418
-0.32132223 -0.39790773 -0.41953626
-0.18265730 0.55215871 0.27971762
-0.44157287 -0.52191854 -0.01554160
-0.01834763 -0.73833442 0.29875472
0.41788647 0.10538585 0.25441101
0.14505610 0.22950239 0.55441189
-0.21991092 -0.00600834 0.07878377
-0.06078110 -0.59966564 0.17348984
-0.33866543 0.28309959 -0.24760115
0.45803159 0.13811208 -0.11432731
0.00323323 0.73174369 0.00924408
-0.21522728 0.36115059 -0.27766290
0.33371580 0.42651066 -0.24813187
-0.00733967 -0.17818059 0.12596464
0.33927628 0.09374531 0.41015553
0.22318336 0.02280301 0.48549986
-0.15722220 0.53242892 -0.29006058
0.47487491 0.21296832 0.09922428
0.23581825 0.11262815 0.53038323
-0.36645752 -0.70680058 -0.01893675
-0.06706005 -0.67039371 -0.33414474
-0.29606771 0.11721820 0.00035229
-0.08019692 0.67805505 -0.08354183
0.39091131 0.04649592 -0.02264846
0.06453316 0.52970457 0.39457077
0.54181820 0.70678723 -0.08361562
-0.32706615 0.11137132 -0.30624706
-0.02148378 -0.14620513 0.02942777
0.52638227 0.33993375 -0.00282417
0.17736967 -0.78379726 0.06484408
0.49895954 0.19990179 0.14204475
-0.18168370 -0.66034555 -0.37625813
-0.32336503 0.49408358 -0.20075348
0.14499497 0.17806035 -0.38837618
0.09012048 -0.66944313 0.19103843
0.31427914 -0.41621023 0.07048491
0.08657978 -0.81173921 -0.23608518
-0.14364491 0.59688520 -0.11214069
-0.31491238 0.46840060 -0.26312116
0.00097967 -0.76485777 -0.06793012
-0.23164317 0.08597709 -0.23896784
0.36510053 0.21772018 -0.27360469
0.26984876 -0.64977455 0.08338305
0.38526678 0.45951506 0.31231579
0.41779378 0.16022031 -0.11944222
0.29095420 -0.09231831 0.06662882
-0.40608430 0.38247865 0.02712597
0.50898755 0.52241933 -0.06637116
0.49503118 0.19787699 -0.01075224
0.01433499 -0.50801528 0.30602279
0.40294710 0.74516475 0.07496433
-0.02376985 -0.59258044 -0.40895694
-0.30175579 0.21748827 0.23788269
-0.03433726 -0.77417946 0.04141616
0.43185756 0.77594829 0.07844947
-0.27636704 -0.81216490 -0.15866697
-0.18578124 0.49650362 -0.22244591
-0.31553307 0.23374961 0.15051517
0.03015603 0.17013761 -0.36207229
-0.29475406 0.45017242 -0.25443590
0.11583824 0.38256574 0.41982865
0.08759101 0.38114998 0.43686894
0.00991120 0.11473544 -0.34830996
-0.17533934 0.00071293 -0.02358147
0.10554446 -0.16587445 0.31429502
0.52822989 0.47526598 0.00261786
0.35971746 0.49398065 0.26714939
-0.47665888 -0.10275136 -0.29766011
0.43701303 0.05056345 0.18491054
-0.22346328 0.58308578 0.14442790
-0.04555921 -0.60065055 -0.36090851
-0.28508395 0.01249430 -0.25665894
-0.22857150 0.03952514 0.22792335
0.46083409 0.31704167 0.21684955
-0.39117086 0.39997953 -0.17158177
-0.41840607 0.57031369 -0.12615183
-0.19745480 -0.30126771 -0.39737260
0.26937407 0.44018498 0.39611575
-0.06410904 -0.80322194 0.15806441
0.25973111 -0.19213493 0.22914061
0.23704024 0.74113178 0.09579969
0.29872087 -0.03020582 -0.10174176
0.48478222 0.52698827 -0.14886726
-0.26747465 0.30228925 0.26912665
-0.18644753 -0.23372507 -0.01028496
0.23590188 0.04963980 -0.25142789
-0.42243201 -0.51163852 0.07988539
0.03544576 -0.05469657 -0.15540425
0.30416602 -0.00278817 -0.18544193
-0.14047493 -0.08661764 0.18578868
-0.29797173 -0.32208097 0.06399747
0.11903456 -0.30068389 0.32664245
-0.02063447 0.71084130 -0.02730872
-0.02223110 0.31541285 -0.41640630
0.12729345 0.36557174 0.43408805
-0.19397682 -0.01057419 0.09533568
-0.49252301 0.49377716 -0.02559968
0.33468413 0.43533912 0.33392787
0.10204940 0.02622679 0.48372489
-0.29336435 -0.35828200 0.06797882
0.05741150 -0.60871780 -0.22437921
0.47297567 0.53267920 0.08061281
0.22726479 -0.51029825 -0.02074084
-0.17740318 -0.37132263 -0.44898742
-0.06359825 -0.04641295 -0.09709173
-0.24335790 0.50907791 0.23399992
0.49859670 0.43096229 -0.03852601
-0.47867411 -0.32967290 -0.31242761
0.10301682 0.17696664 -0.40914276
0.25187889 0.71033883 -0.06831191
0.20465614 -0.62663555 -0.06677522
-0.29655737 0.37280878 0.19285983
0.05914305 -0.66710377 -0.19585240
0.22595169 -0.43664128 -0.03221711
0.15280488 0.16464101 0.52992117
0.17816761 -0.79458785 -0.02437803
0.48516110 0.32039872 0.19632800
0.05859059 0.26511288 -0.36476150
-0.44967541 -0.53071666 0.09283589
0.34729317 0.16265626 -0.27128956
0.09650032 0.43039039 -0.41114125
0.08955906 -0.20121869 -0.01406933
-0.46489909 -0.22740147 -0.34758854
-0.05533379 -0.09037705 0.25890952
0.52744406 0.50258541 -0.00906954
-0.22962654 0.02641731 -0.20959857
-0.34912026 0.11571584 -0.18288369
-0.08189087 -0.68342245 -0.37206158
0.05494728 -0.25963926 -0.11456907
0.01978176 -0.10888895 -0.05857011
0.37405971 0.43898702 0.24139616
-0.14735335 0.26633450 -0.34233758
0.40492567 0.22605549 0.37848985
0.28174514 -0.78289199 0.00736162
-0.13002491 -0.24018949 -0.17012890
-0.42233935 0.52612591 0.02010583
0.27949098 -0.78423429 0.01043082
-0.03899845 -0.11723208 0.00448352
-0.22274899 0.55530548 -0.14441282
-0.12566724 -0.63151681 0.18765542
-0.16270591 -0.57217133 0.19113581
0.42642578 0.04982126 -0.01848818
-0.10266432 -0.23367882 -0.26070064
0.48402560 0.41372791 0.15555860
0.14426649 -0.11559381 -0.12381284
0.34929058 0.51006925 0.31620079
-0.44781166 -0.12728578 -0.40149656
-0.43849352 -0.08151870 -0.35132995
0.07483673 0.47718635 0.43348861
0.28613409 0.72675490 0.06821834
-0.07752388 0.13756135 0.49259898
0.03224632 -0.29249662 0.30061376
0.34063295 0.29729515 0.35325575
0.45840988 0.12293765 0.15619557
-0.20963737 -0.24893987 0.06291417
0.08628795 -0.40993178 -0.30260041
-0.30635539 -0.62528241 -0.38465050
-0.39062583 0.54883301 0.04514473
0.18619169 0.62955225 0.29490209
-0.02056475 -0.23055911 -0.14725085
0.28127742 -0.29210636 0.19197600
-0.25172254 -0.58262050 0.20570567
0.31403050 0.46492353 0.37173432
-0.41474986 -0.03597087 -0.19959834
0.04471464 0.33908424 0.46755195
-0.22242402 -0.81615639 -0.10992536
-0.01287455 -0.08697940 0.38412231
-0.30102524 -0.29980087 -0.41788822
0.12748441 -0.77763295 0.14753762
-0.46147770 -0.38433295 0.03888166
-0.24409267 0.34296295 0.31302953
-0.11728896 -0.20089325 -0.22989762
0.08985768 -0.63838279 0.17740127
-0.39353171 0.25700402 0.08566988
-0.30547303 -0.75380123 -0.22759053
0.13605005 0.00791835 -0.25513402
-0.16726260 0.33137995 -0.29161820
-0.04991640 -0.79129839 0.13623837
-0.02038944 0.16432813 0.50915563
0.30041742 0.60143411 0.20399450
0.12512204 -0.10848711 0.30127606
0.52006441 0.21781342 0.08521951
-0.40171608 0.17317684 -0.20576292
-0.23756090 0.08478189 -0.32685408
0.16672328 -0.18056884 -0.04273058
-0.19128868 0.65968013 -0.05015380
-0.37609860 -0.59076190 -0.35155240
-0.39889598 -0.33631968 -0.41712496
-0.27747169 -0.23968193 -0.00435644
0.40585881 0.28354055 0.34860000
0.41641471 0.56478596 0.08188809
0.27500203 0.08067682 -0.26113364
0.25327334 0.47496137 0.34968403
0.22069237 -0.07558502 0.31229153
0.00606870 0.38775241 0.43947774
-0.29249585 0.24013771 -0.25919569
-0.42307743 -0.20035598 -0.40408516
-0.13524969 -0.25193438 -0.32421565
-0.24825704 0.49395797 -0.19963688
-0.33222991 0.57640874 0.02749048
0.19419561 0.31473526 -0.36249259
-0.01198957 -0.30820876 0.32138696
0.27382615 0.02662223 -0.26717234
0.43278486 0.08713908 0.33094352
-0.18202980 0.59691441 0.01721809
-0.28788751 -0.28310207 -0.41704097
-0.22685322 0.57818961 0.02031967
0.06573921 -0.79443240 -0.14792964
0.40275571 0.05307163 0.22477792
-0.17803906 0.29860130 -0.34774110
0.13810453 -0.23866078 -0.03620122
0.09404728 -0.54686916 -0.11727679
-0.04503886 0.01509415 0.44333866
0.53333336 0.49180940 0.12985019
0.49122664 0.52164316 -0.12050177
-0.42345831 -0.23525405 -0.25068036
-0.38006273 0.03222110 -0.29241568
0.30769774 -0.25496194 0.15489984
-0.32128620 -0.18307643 -0.38907215
-0.11376868 0.61619258 0.24114491
0.01583794 0.70101166 -0.13377869
0.16519414 0.33024025 0.42704874
0.46173459 0.27468818 0.30134457
0.37949154 0.46558273 0.31705818
-0.36478457 0.58388388 -0.13315386
-0.03674573 0.48880875 0.38014564
-0.16275948 -0.23668566 0.02106129
0.48393315 0.69409299 0.05753455
-0.01503736 -0.07948619 -0.14198130
-0.08116142 0.27375174 -0.40170953
0.14481112 -0.71147120 0.17161459
-0.12162454 0.03401066 0.38882932
0.42669502 0.42492139 0.32448751
-0.40348721 -0.36232224 0.03077892
0.11112186 -0.13939789 0.30601573
0.38068676 0.00260319 0.25709143
0.18424320 -0.53205311 0.15017861
0.06089607 -0.36183381 -0.21620077
0.28157061 -0.78208089 -0.04264950
-0.18915047 0.40713176 0.31362206
0.29845902 0.42560190 0.42366603
0.04388142 -0.33801690 -0.30983526
0.51871473 0.89431024 0.01609640
-0.31981599 0.40611842 0.01149239
0.42244744 0.78439343 -0.09377304
-0.04384696 -0.11924078 -0.00191564
-0.26238000 0.48410875 0.28672513
-0.21637087 -0.31345880 0.08782670
0.39789850 -0.01303733 0.01306766
-0.23082438 -0.21205410 -0.03114051
-0.40422547 0.23978810 0.06548868
0.18401234 -0.13652015 -0.03700965
-0.04550162 -0.74322629 0.31524080
-0.40853953 -0.16185604 -0.41744214
0.24265254 0.56083918 -0.24726745
0.28596768 0.06478807 -0.26495185
-0.41198769 -0.49869666 -0.16888970
-0.29757205 -0.22296977 -0.04589540
-0.10979691 0.31046313 0.35151115
-0.14795578 0.64660287 0.07698324
0.03286719 -0.29507336 -0.07709712
0.46513191 0.24775296 0.23156089
-0.23401013 -0.73333156 0.23266391
-0.29828644 -0.51103103 0.17046747
-0.35313654 -0.45633203 -0.38302302
0.17531070 0.47723246 0.41259715
0.27542743 0.40767044 0.39105657
0.12538317 0.73446989 0.17997754
0.26680160 -0.36786994 0.00176284
-0.38929334 0.28939077 0.05631374
-0.29970726 -0.78449035 0.10203194
0.04904996 -0.14911787 0.25585636
0.49179554 0.76042902 0.09277888
-0.24133265 -0.50651383 0.14322051
0.11311334 -0.25875336 -0.06653288
-0.26642868 0.03720956 -0.01309985
-0.27263045 -0.23940739 -0.24808553
-0.21050262 0.02999881 0.22611849
0.27420235 0.72007418 0.06025392
0.22831696 -0.51944065 0.17605041
-0.31255355 0.21719523 0.21649413
0.05598876 -0.58039021 -0.26891750
-0.47823650 0.57828796 -0.07483466
-0.24335811 0.36470360 0.26794848
-0.41963896 -0.18421260 -0.42002344
-0.09862998 -0.77354825 -0.03409305
0.30472749 0.61483014 0.24504028
-0.09878445 0.03848839 0.41807392
-0.20712450 -0.79755878 0.07806911
0.27667999 0.32470226 0.36890027
0.23122999 -0.55050540 0.18468681
-0.14940813 -0.09042546 0.10197347
0.34285641 0.20036027 -0.24384698
-0.23261952 -0.81078541 -0.00755040
0.52638757 0.78597522 -0.05763619
0.38978845 0.31599590 0.36924911
0.23827657 0.60384846 -0.21416265
0.40393245 0.63011301 0.05332686
-0.25135887 -0.74830079 -0.30490676
0.09046074 -0.11513780 0.30070639
-0.20621204 -0.36449939 -0.44041386
0.46866804 0.17928384 -0.08193141
0.12139390 -0.03336541 -0.18075812
0.21848395 0.34526032 -0.35007656
0.15060355 -0.74079335 -0.12666798
0.13684587 0.61949468 0.34924445
0.32504866 -0.13143498 0.12936333
-0.35855779 -0.24032155 -0.06062432
-0.04452495 0.01766663 -0.23701212
-0.21290554 0.03478884 -0.01840663
0.45250025 0.72717249 0.05072345
-0.06352392 -0.56087005 -0.41288120
0.24061142 0.41076863 -0.32441714
0.05450287 -0.72864962 0.29684946
-0.50026834 -0.31983823 -0.18843655
0.14299247 0.55984616 -0.30613855
-0.41106856 0.46210638 0.02035918
0.08539984 0.71676087 0.21466820
-0.39726517 -0.42813313 -0.32218963
-0.17013839 -0.01786934 -0.05110282
-0.24719203 -0.27905801 -0.36671394
-0.20074973 -0.31196734 -0.43418092
0.22586025 -0.51184273 0.17551187
0.28407738 -0.19066463 0.05484156
0.21953271 -0.63204777 0.08625820
-0.34975481 0.19480963 0.05356503
0.22186422 0.36652577 0.39636660
0.09199626 0.20810381 -0.36263454
0.24010323 0.08403568 0.49878952
0.22437830 -0.75852954 -0.14401576
0.41641113 0.71348023 0.03518554
-0.13358854 0.16607973 -0.32411176
0.31160676 -0.34155130 0.06956267
0.09184098 0.66697729 0.28051934
-0.28902623 -0.78577709 -0.20778361
0.01678515 -0.38218707 -0.28782141
-0.44444117 -0.19189681 -0.39642066
-0.29826087 -0.41646132 0.13021958
-0.18099970 0.62676620 0.06584038
-0.25018170 -0.21949178 -0.18852192
0.42079219 -0.00671684 0.08066795
-0.25793877 0.27773607 -0.26168379
0.13956937 -0.57089031 0.22013091
-0.46462291 -0.16910884 -0.33734125
-0.11633167 0.67409611 0.18598717
0.20370913 0.17908786 -0.35650787
-0.35936245 -0.54179001 -0.35181260
-0.32586944 -0.53509307 -0.37414974
0.25171882 0.59702325 -0.20743212
0.12631786 0.25391829 0.54084963
0.42603475 0.18186678 -0.22730240
-0.28081766 -0.41827697 0.13574262
0.03908094 -0.83639407 0.08054966
-0.21514928 0.28526536 -0.28234005
-0.06279080 -0.09149024 0.24569254
0.28296977 -0.08621062 0.12012760
-0.31170878 -0.22935703 -0.26033551
0.44503942 0.00876699 0.10759021
0.31234160 0.29633367 0.37069565
-0.08099536 -0.29096037 -0.31456900
0.27899790 -0.03697696 -0.12557915
-0.34782481 -0.10177052 -0.34788322
-0.11972730 0.17154932 0.38113627
-0.24581769 -0.45263827 -0.44801944
0.25942332 0.66355193 -0.13236821
-0.32405135 -0.25475079 -0.36273864
-0.29022160 -0.26199511 -0.05570459
0.44569334 0.15226114 -0.06404006
0.33988252 -0.07237194 0.09634777
0.25988024 -0.03893003 0.32482395
-0.19334416 0.60913205 -0.08706039
-0.28786954 0.11412065 -0.05156872
0.08582800 -0.09809102 0.35829344
0.33504719 0.49546263 -0.25650972
-0.27780762 0.02528393 -0.18442026
-0.47994572 -0.32244739 -0.19006385
-0.29791281 0.29617599 -0.23932534
0.28866315 0.00504283 0.30546734
0.05423014 -0.78532231 -0.27501041
-0.22645545 0.03357966 0.07832963
-0.36814383 -0.64892447 -0.29316396
0.32005948 0.24163866 0.36782464
-0.37689710 0.45233694 0.01528140
0.43704197 0.42739815 0.27569768
-0.51310712 0.42776343 0.02484668
0.50085449 0.61007082 -0.14493330
-0.29478937 -0.20994253 -0.19172910
0.24451210 0.50904256 -0.30499271
-0.32608354 -0.73071516 -0.27051792
-0.04502916 -0.29714867 -0.28104126
0.48278123 0.41595370 0.01057605
-0.31085780 0.54639733 -0.17044596
0.34072164 0.39413807 -0.28282657
-0.23547271 -0.78815222 -0.23550102
-0.34810138 0.54470575 0.04999879
0.12547682 -0.34581190 -0.11935002
-0.35369131 0.25793266 0.12837698
0.11433446 -0.43812796 0.37006673
-0.43322334 -0.61666036 0.00664645
-0.00188648 0.61950636 -0.24432763
-0.18935661 0.38447300 0.31435275
0.32775310 0.04258171 0.38232100
0.26582122 -0.07628708 0.24733776
-0.28951493 -0.36152956 -0.41701192
-0.21637018 -0.28365451 -0.39690793
0.29802316 -0.26153222 0.14486286
0.50882709 0.71228051 0.06950320
0.06940314 0.26233646 -0.38896269
0.20101184 -0.80329883 -0.00464604
0.04831035 -0.79782641 -0.10812570
-0.34215260 -0.23496449 -0.24444091
0.54753953 0.62519085 -0.08562742
0.37764841 0.77339792 -0.06387649
-0.05948539 -0.48589882 -0.45152384
-0.16463836 -0.63092017 -0.37855056
0.47287986 0.47036728 0.23584700
0.55786526 0.67278397 -0.09791365
0.30897847 -0.38052288 0.16314739
0.23932470 -0.63349319 0.05593051
0.08980411 0.35821113 0.44440949
-0.10461946 0.54509938 -0.22634527
0.01432644 -0.57817852 -0.33565101
0.51849544 0.39114925 0.03776497
0.34612608 -0.00440078 -0.16121976
-0.47510991 0.37766770 -0.13807397
-0.44335482 -0.60150695 -0.15774488
-0.02894740 0.65961981 -0.16638267
-0.32633942 0.30201831 0.13286278
0.34279466 0.00518895 -0.04735280
-0.11815225 0.09041811 -0.21680468
0.30486229 -0.27736038 0.03358644
0.16986249 -0.75257635 -0.19210766
0.18196693 0.56993341 -0.28690538
-0.21449590 0.03599757 -0.10873179
-0.08357674 -0.75262332 0.28409761
0.26481298 0.19037139 -0.34008166
-0.02384330 0.15647629 -0.37560230
0.17615336 -0.01608457 0.45312896
0.27743533 -0.08666548 0.04853185
-0.29719403 -0.32898092 0.12692633
0.27527636 -0.79347765 -0.06664357
0.55104643 0.72888970 -0.03169506
0.11156125 0.54043114 -0.32465401
0.39282635 0.46325544 0.32715419
0.22513014 -0.45204124 -0.11137266
0.21678011 -0.37026653 -0.03237173
0.29353672 0.08972009 -0.25684258
0.47857252 0.28623185 0.14656341
0.47580752 0.19073278 -0.04564250
-0.14782406 0.08571784 0.34211928
0.27494848 -0.45440963 0.19758092
-0.37584049 -0.58962393 -0.23107782
-0.01868639 -0.07224382 0.27064443
-0.30797267 0.02670481 -0.33383641
-0.45211071 -0.12943281 -0.22993773
0.30551657 0.56551600 0.19021749
0.29578757 -0.73483670 -0.03732844
0.10137086 -0.04460527 -0.25026572
0.29988581 0.27587500 0.39935711
0.10643574 -0.57072484 0.22088814
0.02451923 -0.03771253 -0.20532283
-0.48747456 0.55045903 -0.10288556
-0.37432432 0.36921984 -0.22767812
0.21386358 0.23091643 0.50999504
-0.12637244 -0.25908595 -0.26264074
-0.11576660 -0.73953044 0.28709793
0.52128053 0.42855904 0.07468811
0.36351597 0.63654613 0.12516823
0.22641988 -0.21075678 -0.02883078
0.05747944 0.50428081 -0.32566366
0.30711338 0.21376811 0.42027998
0.07948729 -0.02026128 0.41102421
-0.39429593 0.23351218 -0.10874844
0.09046762 -0.71827900 0.24239621
0.26641899 -0.07762073 0.21706687
-0.00125134 -0.00640662 -0.19332087
0.22709145 -0.64046943 -0.07100806
0.41157439 -0.01132146 -0.01797562
-0.01217346 -0.18448311 -0.01120470
-0.44606411 0.30692074 -0.08058558
0.37215796 0.28808168 0.35505527
-0.10306838 0.09421492 -0.29353744
0.08564419 0.55989468 -0.28572199
-0.24727267 -0.59826636 -0.40444243
-0.15059330 -0.77529562 0.16780046
-0.11431305 0.61961615 -0.16609123
-0.34500375 -0.44174519 -0.39829460
-0.33109227 0.12376217 -0.19283631
-0.06034860 -0.27612591 -0.29483515
0.14182861 -0.67142999 -0.14064725
0.10674575 0.17649953 0.52000833
0.02210723 -0.04513185 -0.16010846
-0.27709341 -0.72621071 -0.33136743
0.18326735 0.65434742 -0.19417606
-0.01837329 0.28377506 0.53098500
0.02219262 -0.78884602 -0.31515926
-0.38699374 0.45747852 -0.17171167
-0.04483023 0.12807480 -0.29523632
0.56822991 0.53619933 0.09194674
0.24946256 -0.70347190 -0.16205905
0.36725706 0.64328468 0.10259239
0.46495226 0.13192765 0.03836524
0.20148394 -0.02714910 -0.16908512
-0.03850275 -0.71299338 0.32892013
-0.09572771 0.13360855 -0.32300791
0.02166121 0.07744071 -0.32849932
-0.31970498 -0.42445013 0.14695680
0.43860251 0.22160751 0.37184429
0.19323179 0.48311275 0.39697641
0.08817355 0.64799666 0.28406227
0.49294791 0.14884913 0.04102812
0.07091154 -0.03838237 0.42247361
-0.26431563 0.51112843 0.18329263
0.00207927 -0.65278339 -0.30941615
-0.39657110 -0.22754914 -0.09642717
0.56785512 0.69938612 -0.03584363
0.48018035 0.22542326 0.06220465
0.04036707 -0.38649416 -0.35716176
-0.45025751 -0.18777469 -0.36812857
-0.05121124 0.00557441 0.45472303
0.05541459 0.70020938 0.10257873
-0.38814932 0.17388126 -0.17273313
0.30242896 0.62641895 0.28757572
0.48558515 0.83633745 0.01528899
-0.16156515 -0.82032156 -0.17487656
0.45756537 0.17226188 0.29188967
-0.02131329 -0.08734562 -0.02947494
-0.17329745 0.38786483 -0.31386936
-0.25062820 0.36400974 0.31124306
0.24112543 0.28069907 -0.34257162
-0.12336223 -0.62033319 0.18984683
0.08583641 -0.07051149 -0.18744165
0.37470415 0.77676463 0.10598199
0.28011781 0.02184040 -0.22768691
0.32907221 -0.75698483 -0.00304707
0.24401613 -0.62965155 -0.01274743
0.28274256 -0.72725749 -0.13809800
0.06395049 0.34293184 -0.37516797
-0.45943037 -0.08729459 -0.33973178
-0.06014347 0.15727013 0.48426431
-0.32349765 0.37104413 -0.21929717
-0.16169901 0.47531894 -0.31284642
-0.32204065 0.14284499 -0.07045765
0.42957634 0.23098534 0.33118692
-0.20014855 0.44278115 0.38847357
-0.10592180 -0.54804742 0.19020095
0.32286292 0.72386801 0.06652576
-0.01546071 -0.11996564 0.26717269
-0.04669569 -0.26292172 0.13393936
0.29549748 0.06458789 0.43681139
0.40052864 0.80036151 -0.06632508
-0.17729735 0.07030645 -0.20254317
0.00211028 -0.23459646 0.27555546
-0.44162050 0.63516474 -0.04647571
0.36008245 -0.02455122 0.28936362
0.22867037 0.19713417 0.48600346
0.19359069 0.68567359 0.18027306
0.38213217 0.79220307 0.06840131
-0.49453294 -0.13407530 -0.27385372
0.34264952 0.32657269 -0.31009403
-0.39316493 -0.31844208 -0.41429120
-0.06406463 -0.53941894 0.26096407
-0.34887621 -0.12106249 -0.38293785
-0.31644887 -0.38208690 -0.45057690
-0.15722346 -0.79319251 0.23982842
0.39094242 0.01419048 0.21232802
-0.10180095 -0.27498117 -0.34240577
-0.29060006 -0.21714199 -0.01872126
0.38468671 0.21326615 0.35804540
-0.16390938 0.42637789 0.35649803
-0.31667039 -0.76898241 -0.12667182
-0.36720166 -0.63493454 0.09632957
0.27410811 0.13524416 0.46992138
0.19289188 -0.08459990 0.34164029
0.54987139 0.55736434 -0.05299919
0.24625044 0.12964588 0.48172155
-0.03324885 -0.28621650 -0.31433955
-0.09907176 -0.29517740 -0.31875756
0.13274491 -0.14470415 -0.09331480
-0.06115789 0.67272913 0.24598846
-0.13404211 0.43224010 0.36263734
0.30450186 -0.29824933 0.20498195
-0.15956946 -0.67654109 -0.36066043
0.00996521 -0.12282972 0.22079101
-0.32761541 -0.27255592 -0.10463974
-0.09139295 -0.26341417 0.09050705
-0.25343415 0.02993282 0.06312529
0.40042245 0.46659002 0.30922845
-0.23361039 0.37904942 0.32374713
-0.42973697 0.53986096 0.04134373
-0.21020380 0.02513278 0.23744698
0.07081147 -0.55800426 0.24569748
0.02109878 0.03448082 0.52557898
0.26434350 0.71707892 0.15410450
-0.33881822 0.27849770 -0.23254907
0.07096021 0.70149636 -0.04465751
0.16329797 0.67697108 -0.11882778
0.47402173 0.18186627 -0.02629876
0.44323820 0.09929097 -0.11121033
-0.33794737 0.12870306 -0.29809511
-0.32523525 0.05077194 -0.16205722
0.17563182 0.31524718 0.41969761
-0.03217836 -0.58788800 0.23679635
0.41101706 0.37076283 0.33179155
0.17775734 -0.64705670 0.15806058
-0.42710403 -0.07961269 -0.27054611
-0.29433528 -0.28206426 -0.42052424
0.19238904 0.65334046 0.30276668
-0.45638511 -0.49746653 -0.19575468
0.07191741 -0.59716856 -0.23493665
0.42014217 0.86018515 -0.01142485
0.54122680 0.65613592 -0.04497991
-0.13124341 -0.04462612 0.09043121
-0.06878777 -0.47890690 0.25039417
0.03290065 0.66354048 -0.14792798
0.07957488 0.62181664 0.35502419
-0.23643136 -0.39019841 0.13645233
0.44023052 0.38240236 -0.15939334
0.49034113 0.28624219 0.00282311
-0.29517475 -0.42415851 0.12973796
-0.50583833 0.46506187 -0.07610780
-0.19725545 -0.03235750 0.04586280
-0.36164263 -0.71582687 -0.03240240
0.08907229 0.16808014 -0.38210109
-0.06737089 -0.79242444 0.21940440
0.20177792 -0.49603853 0.27588600
-0.02954327 0.65322852 0.25018978
-0.43836275 0.53783453 0.04087602
0.20041439 0.51000047 -0.30583751
0.35665804 0.70658088 -0.11802477
-0.33538657 0.50314736 -0.23494747
-0.29469976 0.12017589 -0.25381035
0.09629085 -0.79632270 0.16132894
-0.34390688 -0.60805953 0.17078871
-0.17685971 -0.20874372 -0.17069994
0.40375596 0.04076923 0.18338974
-0.09346409 -0.78343129 0.11624259
-0.06009158 -0.25936753 0.04872887
-0.31657863 0.47154492 0.05590284
0.02020602 0.15200329 0.47206962
-0.12046063 -0.78580916 0.16610229
-0.51863611 0.44566393 -0.03709414
-0.22058748 0.00296823 0.24721555
0.51805818 0.57765591 0.06609610
0.37631965 0.57025623 0.24402963
0.24877822 0.01835703 -0.23016739
-0.04553598 -0.32006148 -0.31181860
-0.40043521 -0.27386916 -0.02533872
0.04495168 0.51837945 0.39000219
-0.04025134 -0.77859676 0.30174488
0.24867323 0.18707952 0.48146307
-0.48752749 -0.38365725 -0.32077289
-0.04321574 -0.77072191 -0.03540517
-0.34386522 -0.55700982 -0.33521825
0.00195322 0.21444625 0.50022519
-0.19632302 -0.75476670 0.11311530
-0.02475537 0.61568999 -0.18460751
0.50249171 0.72607052 -0.13876116
0.34770429 0.30475205 -0.24685499
0.39720762 0.26744550 -0.25990659
0.19785270 -0.06123682 -0.13052513
0.11182541 -0.04521427 -0.21484363
-0.14662813 0.00176974 -0.06613333
0.35494354 0.20684831 0.41233993
-0.46385527 0.58454645 -0.12072241
-0.35087350 0.38857278 0.00366456
-0.19276325 0.56744516 -0.11555356
-0.00381071 0.60083151 0.31524625
0.17805952 0.68861949 0.26672554
0.33844021 0.33496687 0.39738208
0.22895128 -0.67947531 -0.12486890
-0.31950697 -0.65154421 -0.27767655
0.07049003 -0.74346364 -0.22981283
-0.09996251 0.15692113 0.41849539
-0.26708260 0.06173814 0.17568851
-0.37973809 0.18131566 0.06687660
-0.18896692 -0.42002004 -0.45210832
0.17267343 0.06770118 0.45042259
0.17440714 -0.73798394 -0.12506008
-0.33930326 0.10743875 -0.14131701
-0.20766033 -0.29833850 0.08964639
0.28269157 0.65040851 0.24017343
0.18343006 0.70956826 -0.07719588
0.23638064 -0.26395968 0.27272558
-0.49091005 0.49965027 -0.08180812
-0.44821596 -0.09085009 -0.28690052
-0.43495718 0.41309562 0.04238921
-0.50409997 0.60672975 0.01621829
-0.46421677 -0.19324586 -0.29410329
0.20599796 0.13252228 0.50524521
-0.18243106 -0.03077693 0.14467275
-0.16535249 -0.20833723 -0.10394034
-0.11229852 0.64363384 -0.07999423
0.03409064 -0.52681649 -0.26910535
-0.28055662 0.51343024 0.03715524
0.17848252 0.57215369 0.38533297
0.13156927 0.47856137 -0.34068969
-0.36434680 -0.60628414 -0.28671336
0.27298474 -0.46588048 0.22599240
-0.01262067 -0.79561937 -0.17964871
0.29580602 0.16901013 0.43249378
-0.40874153 -0.25034168 -0.13529302
0.39751464 0.39709517 0.32872662
0.13799673 -0.54090250 0.19884256
-0.39826983 -0.63536119 -0.18201138
-0.05733275 -0.02227120 -0.19265562
0.20909062 -0.82911694 -0.16138174
0.04528018 0.17865416 -0.37335140
0.19871356 -0.03752167 -0.20511964
0.22681344 0.66843975 0.26815569
0.09283543 -0.76676929 0.25113195
0.42867386 0.57756305 0.08578395
-0.45511320 -0.41136000 -0.23323384
0.39681435 0.55303323 0.20137365
-0.09754756 0.41043454 0.42889705
-0.20541316 -0.77554691 -0.21374938
0.02552399 0.16809751 -0.38987818
0.28059736 -0.07503607 -0.04987135
-0.16264211 0.53609490 0.32335377
0.06169358 -0.44646320 0.32184467
-0.47419894 -0.40441552 -0.11475229
-0.00647545 0.49980128 -0.32778537
-0.48671019 -0.36677876 -0.14687850
0.16360225 0.74696934 -0.00189143
0.08993793 0.68864119 0.30618560
0.26983267 -0.44851330 0.16299929
-0.17208770 -0.00772090 0.05115158
0.42156956 0.36097482 0.28644368
0.03222840 -0.82430089 -0.03492109
0.44912723 0.51450527 0.14730418
-0.37135005 -0.61635649 -0.29721954
0.30287439 0.56987095 0.24880998
-0.10471553 -0.74967921 0.04672461
-0.33457547 0.17219940 0.09660889
-0.34805092 -0.74423003 -0.18374503
0.35220751 0.50989616 -0.21918744
0.50988078 0.43406513 -0.05961856
0.30478498 -0.01411786 0.34197497
-0.23537475 -0.77038157 -0.28998178
0.27132139 0.77079511 0.06625215
-0.48587286 0.36030123 -0.12930357
0.08882376 0.55112386 0.39197698
-0.51544636 0.41904318 -0.05588459
0.23637500 -0.16302098 0.00018516
0.03035410 -0.04796636 0.36792666
0.03936759 -0.21731797 0.03059750
-0.11762241 -0.33631673 0.14453867
-0.31179565 0.24152489 0.16548911
-0.03149032 0.57749975 0.34418711
0.13379550 0.73268473 -0.08472139
0.02915883 0.20551012 -0.35537320
0.30192944 0.12276758 -0.29418322
0.15463609 0.57093418 -0.29195920
0.30843914 0.52631330 0.34458929
-0.06887694 -0.05807276 -0.09530874
0.09157604 0.60634995 -0.20911023
-0.17872168 -0.29083207 -0.31259871
0.21302423 0.50323641 0.45991021
-0.05401216 -0.44393831 -0.38311282
-0.09820761 -0.23354778 -0.14826752
0.05039018 0.48447192 -0.36984837
0.03462891 -0.23901141 0.26387545
0.53609717 0.47460988 0.09799631
-0.04865570 -0.45646852 -0.40734407
-0.18560790 0.04235670 -0.19584045
0.54901135 0.62803996 0.08537330
0.52878308 0.44640186 0.05708866
-0.49760276 0.61661232 0.02508975
0.00077327 -0.80764246 0.18370134
-0.12724714 0.32655495 0.35876384
0.25631499 0.67114079 0.21805319
-0.28004637 -0.58755827 0.15460522
0.40004092 0.47814968 -0.25895074
-0.47894573 0.57807076 -0.14587277
-0.28515771 -0.31958583 0.10230807
-0.02071137 -0.28698981 0.17569865
0.54719776 0.81206489 0.01143944
0.22440900 0.13546124 0.48800263
0.54863387 0.70004678 -0.09368685
-0.04857244 0.63432515 0.21569705
-0.37894243 0.22327110 -0.18533304
0.26332983 0.53176385 -0.33227709
0.36077571 -0.07255598 0.07888983
0.05704817 -0.52455759 -0.34846953
0.14281121 -0.60031962 0.23547462
-0.28319162 -0.75043285 0.15224698
0.11125203 -0.59285212 0.24826726
0.47146541 0.16709031 0.13965285
0.16593453 0.14416260 -0.37257898
0.16330916 0.41417226 -0.35145527
-0.24001953 -0.48589477 0.13842788
0.20930083 -0.64887893 -0.09487079
-0.03083755 0.21604018 -0.34607440
0.21581209 -0.30972525 -0.08141993
0.07550183 -0.80495834 0.24435923
-0.22378719 0.58801675 -0.15635854
0.21966474 -0.06903262 -0.10675141
