-0.213613 0.617139 0.048615
0.176923 -0.246596 0.322704
-0.020407 0.649887 0.285700
-0.217565 -0.793412 0.161835
-0.373364 -0.102229 -0.394380
0.453096 0.070302 0.147037
-0.072721 0.670466 0.204395
0.037406 -0.438849 -0.344309
0.263156 0.681627 0.169809
0.242927 -0.316811 -0.040580
-0.408434 -0.272844 -0.118414
0.313627 -0.081104 0.105435
-0.248198 0.056359 0.170436
-0.365877 -0.221926 -0.260819
0.152322 0.620527 0.340114
0.257889 -0.138251 0.015288
0.050152 0.444340 0.440451
-0.392242 -0.454173 0.094664
-0.076709 0.056036 0.444525
-0.415484 -0.114566 -0.402304
0.005444 -0.045619 0.387983
0.319388 0.372698 0.351904
-0.411269 -0.635614 -0.140291
0.307755 0.600001 0.272096
0.298496 0.024010 -0.210003
-0.074968 -0.278041 -0.314741
0.501033 0.672221 0.059712
-0.295634 -0.533621 0.158473
-0.384964 -0.578831 -0.284192
-0.386540 -0.252176 -0.121915
-0.285479 0.279827 0.247465
-0.368235 0.037760 -0.257213
0.312869 -0.006437 0.324865
0.087419 -0.797328 -0.108654
-0.224247 0.071372 0.264441
-0.103495 -0.544549 0.186670
-0.096816 0.214016 -0.346279
-0.101856 -0.638081 0.186680
0.033117 -0.505077 -0.359301
0.402112 0.139142 -0.193485
0.161184 0.527127 0.405869
-0.455420 0.410092 -0.142050
0.388139 0.546063 -0.176843
-0.190942 -0.592397 -0.409984
0.428361 0.714164 0.058056
0.473555 0.154263 -0.059430
-0.192925 0.563383 -0.178004
-0.239179 0.404902 -0.257490
0.505939 0.442202 0.123883
0.267358 0.349322 0.377285
0.002222 0.208712 0.523106
-0.327621 0.407974 0.035395
-0.211116 0.147518 -0.267537
0.474308 0.481999 0.131955
0.505311 0.389409 0.065216
0.282304 0.048992 -0.248239
-0.095943 -0.269325 0.067936
-0.252332 -0.679890 0.184074
-0.018869 -0.241423 0.009809
0.023187 -0.455117 -0.365076
0.394751 0.289714 -0.241910
-0.096406 -0.775089 0.004734
-0.407563 0.261221 -0.096387
0.043184 0.511599 -0.340387
-0.107492 -0.773339 -0.019272
0.568711 0.677896 0.015832
-0.419687 -0.057716 -0.238106
0.252389 -0.716892 0.037253
0.310402 -0.371431 0.053171
0.278107 -0.064516 -0.076898
-0.063085 -0.769243 0.287370
0.243892 0.551122 -0.261674
-0.357215 0.168233 -0.285420
0.102599 0.508134 -0.338701
-0.484137 -0.264698 -0.277390
0.014655 -0.545269 -0.368971
0.207626 0.699518 0.187102
-0.269123 -0.496662 0.162275
0.260123 -0.303211 0.277711
0.034247 -0.235043 -0.032942
0.402563 0.850937 0.043263
0.341471 0.646495 0.103180
-0.387800 0.157880 -0.250360
-0.150468 0.397023 0.378441
0.188851 -0.564458 0.177812
-0.072631 0.233951 0.425607
0.200226 0.722155 0.109190
-0.322150 0.232475 0.142719
-0.202041 0.563131 0.229892
-0.375114 -0.184171 -0.414183
0.247623 0.037073 0.436571
-0.343210 -0.626288 0.117581
-0.021852 -0.118551 -0.017637
0.064281 0.717613 -0.047734
0.048959 -0.012102 -0.250809
-0.479542 -0.302374 -0.263384
0.128844 0.255219 0.528559
-0.085494 -0.734045 -0.318704
0.492817 0.227347 0.173628
0.024857 0.478583 0.429690
0.023598 -0.470988 -0.366601
0.250283 -0.189635 0.230665
0.532599 0.509683 -0.042202
-0.303194 -0.790285 -0.091687
0.231798 -0.340439 -0.056105
0.247241 0.275048 -0.347867
0.332645 0.627878 0.161208
0.040390 -0.530291 -0.349129
0.143942 -0.082914 0.323236
0.016785 -0.393773 0.318001
-0.278138 0.502216 0.127337
0.234244 -0.784751 0.032845
0.440737 0.377254 -0.159017
0.413351 0.145722 0.340927
-0.021994 -0.154708 0.050425
-0.393794 0.186132 -0.177695
-0.148832 -0.052262 0.056995
0.334635 0.282084 0.359825
-0.067150 -0.701103 0.280555
0.102798 -0.428073 -0.172476
0.521009 0.515801 -0.067258
-0.377263 -0.709774 -0.098261
0.057863 -0.007855 -0.257909
-0.207366 -0.497858 0.160295
0.036791 -0.080980 -0.134995
0.125015 0.010532 0.462658
-0.357501 -0.144412 -0.389521
-0.098188 -0.380569 0.194160
0.049952 -0.653409 -0.253827
-0.169821 0.642571 0.025532
-0.305659 -0.246288 -0.370227
0.085076 0.525991 0.413892
-0.348380 -0.744026 -0.014841
0.129684 0.065583 -0.321182
0.196856 -0.582875 0.144697
0.273621 0.727881 0.108972
0.153620 -0.191989 0.306527
-0.294804 -0.217937 -0.091231
0.133164 -0.781821 -0.181178
0.216532 0.637727 0.299414
-0.263087 -0.572498 -0.393135
0.442271 0.343436 0.286131
-0.096627 0.610629 0.292244
0.304056 -0.400642 0.041881
-0.517570 0.464141 -0.018293
0.026668 -0.258556 -0.073842
-0.304030 -0.687408 -0.301756
0.120580 0.632579 -0.236577
0.064921 -0.796488 -0.190892
0.071471 0.557835 0.396167
-0.467217 -0.447674 -0.110371
-0.013372 -0.705462 0.308633
-0.282554 0.516682 -0.189247
0.171307 -0.022519 0.425433
-0.449274 -0.554363 -0.055624
-0.385928 0.182783 -0.164834
-0.015357 -0.254188 0.233998
-0.089197 -0.707688 0.260439
0.179869 0.685472 0.237934
-0.231085 -0.248015 0.012460
-0.105757 0.676577 0.075641
0.052520 -0.506242 -0.339229
-0.314437 0.608966 0.023322
-0.280915 -0.792889 -0.057410
-0.156569 0.626678 0.184941
0.496185 0.202367 0.018039
0.139968 0.694967 -0.129327
-0.030048 0.038994 -0.276050
-0.430950 -0.591139 -0.140265
0.147292 0.507881 0.416684
0.466394 0.841860 -0.028052
0.005579 0.216601 -0.378240
-0.516467 0.561026 -0.031676
-0.291179 -0.625480 -0.352360
-0.227550 0.390533 -0.267603
0.106773 -0.797843 -0.056929
0.158764 -0.400034 0.337677
-0.196597 -0.011356 0.184123
-0.357207 0.177541 -0.131784
-0.373909 0.451495 -0.202459
0.292869 0.373983 -0.316595
-0.279747 0.084123 -0.016363
-0.007719 -0.098786 -0.075412
-0.366108 -0.205562 -0.413382
-0.385674 -0.558947 -0.298305
0.091210 -0.678481 0.235022
-0.245985 0.051789 -0.254943
-0.157921 0.622149 0.193814
-0.043481 -0.635100 -0.366890
-0.398278 0.166077 -0.224654
-0.207526 -0.720917 -0.339352
0.024085 0.497136 0.422753
0.357086 -0.040949 0.127133
-0.078026 -0.491142 0.226397
0.302533 -0.069957 -0.023403
0.379979 0.589037 0.123259
-0.215989 0.303777 -0.287122
0.218540 0.253722 -0.359655
-0.318615 -0.482878 0.146867
0.144301 0.726077 0.100919
-0.068571 0.685214 0.152151
0.324290 0.595120 0.256838
-0.373735 -0.005169 -0.330151
-0.297071 -0.395218 -0.424315
-0.011142 0.508920 -0.334811
-0.399302 -0.451337 0.087387
-0.412690 0.589262 0.017790
-0.021828 0.169229 -0.359624
0.119958 -0.692655 0.191603
-0.342612 0.483787 0.020368
0.447932 0.164781 0.286926
0.178353 0.628284 0.325773
-0.293879 0.198300 -0.277191
0.044004 -0.554876 -0.336835
0.170778 -0.742256 -0.158638
-0.114094 -0.003903 -0.178561
-0.267957 0.111791 0.199600
-0.012036 -0.748782 -0.287196
0.354064 0.818026 0.017257
-0.247724 0.223701 0.273022
0.222257 -0.494716 -0.053799
-0.247214 0.024804 -0.224126
0.262711 -0.439468 0.245131
0.311729 0.317843 0.368331
-0.237619 0.274791 0.294480
-0.072431 -0.538545 0.220080
-0.092021 -0.387513 -0.415054
0.074156 -0.675651 -0.229744
-0.126463 -0.074029 0.116273
0.384680 0.578769 0.135917
0.021752 0.720835 0.030700
-0.090794 0.579894 0.332055
0.113614 -0.058707 0.389399
-0.183528 0.631037 0.087194
0.240381 -0.795589 -0.008457
0.077797 -0.336710 0.343111
0.332022 -0.061081 0.143681
0.352388 0.092684 -0.223706
-0.423735 -0.567534 -0.210863
-0.443702 -0.301976 -0.384505
-0.313833 -0.706699 0.113645
0.012351 -0.263845 -0.100047
0.029231 -0.798570 0.220233
0.221103 -0.462221 0.271229
0.212195 0.291978 0.417797
0.231473 -0.726596 0.055633
0.210163 -0.790976 0.035517
0.198218 -0.635140 0.106121
0.232115 -0.059464 0.316594
-0.077956 0.596944 0.322343
0.234581 -0.798016 -0.060715
-0.003138 -0.172799 0.029155
0.200398 0.627743 -0.213975
0.293957 -0.105788 0.122495
0.303546 -0.422486 0.062206
-0.211691 0.018416 -0.043401
0.078962 -0.354116 -0.177265
-0.274716 0.266463 -0.254164
0.158191 0.097894 0.503758
0.229731 -0.193294 -0.011128
-0.077123 -0.103098 0.116776
0.219454 0.731694 0.036903
-0.449143 -0.514561 -0.182159
0.088047 0.553195 -0.313603
-0.354397 -0.525163 0.131449
0.148890 0.112018 0.513387
-0.158379 -0.036586 0.227808
0.041194 -0.332512 -0.220509
0.469337 0.141352 -0.061054
0.100737 0.717550 -0.057299
0.332617 0.257791 -0.294948
0.236244 -0.631794 0.010724
0.069874 0.180279 0.527834
-0.325867 -0.210713 -0.329332
-0.087948 0.685205 0.076910
0.489445 0.734707 0.055966
-0.191874 -0.239065 -0.005865
0.350980 0.747319 -0.108930
0.277814 -0.367886 0.258734
-0.179864 -0.454688 0.155397
-0.355190 -0.497094 -0.366979
-0.376216 -0.711953 -0.071189
-0.486738 -0.267222 -0.301683
0.188389 0.206452 -0.365324
-0.263678 0.572337 0.078864
0.065392 -0.427394 -0.282791
0.046188 0.365953 -0.386242
0.330735 0.009894 -0.158262
0.428254 0.067906 0.234445
-0.042510 0.492195 -0.333627
-0.166228 -0.717580 0.247533
-0.366518 0.301583 -0.202745
0.341604 0.554565 0.291055
0.238765 -0.787679 0.025293
-0.207081 0.609079 0.108103
0.048126 -0.335848 -0.209791
-0.040607 0.517678 -0.320991
0.244728 -0.774648 -0.142169
-0.355221 0.553384 -0.156867
-0.231104 0.069240 -0.237157
0.376992 0.544397 0.246314
-0.162475 -0.223567 -0.060251
-0.333754 -0.200662 -0.349715
-0.353916 0.310606 0.060602
-0.316550 -0.471088 -0.401483
-0.154878 0.651128 0.056591
0.059886 0.019348 0.460077
-0.222597 -0.577974 0.171557
0.015272 -0.767486 -0.042346
0.475845 0.403484 0.185765
-0.347256 -0.743914 -0.171506
-0.467398 -0.375424 -0.251199
-0.005018 0.384901 0.441464
0.059896 0.699788 -0.118080
-0.041691 -0.246893 -0.036817
-0.373602 0.416672 0.016342
0.331708 0.526102 0.328068
0.288562 0.491058 -0.273019
-0.236499 0.165917 -0.262985
-0.230976 0.411670 0.314296
-0.262228 -0.290783 -0.394415
-0.331169 0.501267 -0.195023
0.305410 -0.036622 -0.105375
-0.374962 -0.653398 -0.231072
-0.157778 0.086699 0.359458
0.304890 0.571790 0.312406
-0.210527 0.280766 -0.290629
-0.306552 0.528564 0.050910
0.125229 0.730533 0.039593
0.030963 -0.323481 -0.232029
0.189501 -0.246862 -0.048995
-0.075586 -0.796501 0.184263
-0.065055 -0.487375 -0.422165
0.179757 0.143620 -0.348868
-0.323270 -0.649084 -0.309340
-0.179426 -0.794103 0.009521
0.132661 -0.090682 0.314284
0.310002 -0.051776 -0.062205
-0.290804 0.564427 0.061595
-0.238714 -0.391319 -0.430194
0.326890 -0.067429 0.049569
0.189908 -0.796291 -0.116353
-0.094336 0.051708 0.424794
0.281440 -0.205473 0.175115
-0.157561 0.315815 -0.323231
-0.105534 0.583683 -0.230567
0.070464 0.181221 -0.376905
-0.059776 0.147338 0.484306
-0.197333 -0.777415 0.230139
-0.201338 -0.753674 -0.321566
0.146453 0.185299 -0.371760
-0.051484 -0.782874 -0.274909
-0.343809 -0.041504 -0.357319
0.094557 -0.547074 -0.186133
0.035732 0.235304 -0.386099
0.386581 0.528384 -0.179779
0.114609 -0.370359 0.348210
-0.123915 -0.232975 -0.039638
-0.303998 -0.438666 -0.415300
0.026087 -0.638276 -0.304827
-0.268209 0.355512 0.278599
0.299224 -0.251659 0.092028
-0.409380 0.392538 0.022497
0.161281 0.681161 -0.153888
0.087573 -0.406846 -0.191086
0.238349 -0.389188 0.301281
0.359424 0.358473 0.341399
0.383503 -0.005412 -0.023034
-0.252411 0.423185 -0.245545
-0.120971 0.662248 0.141081
0.027503 -0.269061 -0.107317
-0.124526 -0.381528 0.170046
0.063410 -0.515450 0.294834
-0.124799 0.271637 0.356249
-0.150155 -0.790874 0.214688
-0.294015 -0.726533 0.139967
-0.458170 0.485132 -0.140554
0.198082 0.657012 0.281286
-0.394810 0.198558 -0.231480
-0.346497 0.151976 -0.131669
-0.229275 -0.586641 0.171620
0.150801 -0.366692 -0.119939
-0.397443 -0.004446 -0.276683
0.304982 0.390384 0.361250
-0.231691 0.021916 0.048842
0.242185 0.701975 0.148259
0.163346 0.109325 0.510812
-0.190947 0.182621 -0.285757
-0.326481 0.347642 0.080775
-0.272419 -0.385262 0.130763
-0.455966 -0.240493 -0.239449
-0.299631 0.448086 0.116709
0.300844 -0.027146 0.302178
-0.115646 0.401380 0.398713
0.468655 0.230288 -0.111228
0.096619 -0.591972 -0.171697
0.072174 -0.142414 -0.051368
0.023598 -0.156186 -0.013859
-0.467971 -0.406758 -0.131110
0.102474 -0.797096 -0.143608
-0.358638 0.476748 0.014244
-0.012004 -0.629873 -0.349635
0.361435 -0.014842 -0.060298
-0.225288 0.595780 0.103440
-0.066677 -0.289015 -0.322727
-0.139491 -0.731740 0.245214
-0.010838 0.120220 -0.339802
-0.247590 -0.791308 0.119787
0.040082 -0.786258 0.025349
0.034090 -0.306000 -0.189752
-0.241950 -0.791527 0.143100
0.314029 0.047997 0.396640
-0.134084 -0.348477 -0.408493
-0.128631 0.261932 -0.338999
-0.267145 -0.203631 -0.115893
0.068414 -0.190158 -0.032662
-0.273972 0.324986 0.270513
-0.371251 0.024210 -0.285571
0.414696 0.532165 0.168898
-0.213173 -0.001081 0.108749
0.171617 -0.797768 -0.091620
0.314624 0.111610 -0.268032
-0.026317 -0.255282 -0.103688
-0.158585 -0.265132 -0.344297
0.418990 0.018170 0.101382
0.441025 0.236732 -0.167390
-0.348515 -0.331835 0.068589
-0.211883 -0.489725 0.159730
-0.443402 -0.494242 -0.228802
-0.068684 0.691222 0.109499
0.277999 0.367617 -0.326096
-0.432024 -0.517973 -0.241690
-0.046906 0.667468 -0.129124
-0.357604 -0.098782 -0.236294
-0.302973 0.432826 0.123096
-0.007692 0.047307 -0.291165
-0.020614 -0.454396 -0.399762
-0.194283 0.488021 -0.248879
-0.014031 0.681343 -0.125172
0.301726 -0.056033 -0.064635
-0.040090 0.682268 0.207542
0.032434 0.565796 0.387504
0.164108 0.298344 -0.379439
-0.173552 -0.247172 -0.321052
0.521056 0.731104 -0.076530
0.505405 0.587016 -0.106614
-0.161411 0.643464 -0.016264
0.477035 0.237278 0.231485
-0.095181 -0.002018 0.378341
-0.339730 -0.170084 -0.307917
-0.298209 0.348379 0.223917
-0.076425 0.026408 -0.241290
-0.444030 -0.324829 -0.116807
-0.237980 0.046035 -0.065795
-0.385451 0.618570 0.015830
0.279535 0.119772 0.466091
-0.019666 0.711189 0.035358
0.210212 -0.584101 0.117009
-0.313811 -0.253467 -0.002435
0.470774 0.275093 0.243867
-0.141747 0.262730 -0.332005
-0.085672 0.663819 -0.088584
0.138675 -0.009101 -0.257435
-0.366025 -0.189157 -0.248878
0.136097 -0.344456 0.348131
-0.339410 -0.760771 -0.034321
-0.303833 -0.215345 -0.244997
0.265066 -0.673951 -0.018943
0.076180 0.649952 0.306960
-0.093747 0.507153 -0.303925
-0.417304 -0.238798 -0.213918
0.347557 0.286663 -0.285227
0.231863 -0.202036 -0.010471
0.055415 0.570676 0.386370
-0.466580 -0.117023 -0.328572
-0.024915 -0.060607 0.348702
-0.416847 0.371090 -0.177402
-0.234070 0.023843 0.057735
0.240285 -0.430063 0.279812
0.403259 0.362116 -0.220558
-0.011399 -0.175647 0.180596
-0.012244 0.013115 0.446647
-0.241619 -0.199714 -0.204571
-0.100813 0.028828 -0.231112
-0.429716 -0.056161 -0.320052
-0.155120 -0.007584 -0.121926
-0.454412 -0.532678 -0.103151
0.208453 0.559294 0.377396
-0.363834 0.331600 -0.212571
0.321775 0.329694 -0.304193
-0.189921 -0.219523 -0.062142
0.016667 0.356590 0.450361
-0.462775 -0.344153 -0.319399
-0.166137 -0.023717 -0.023504
0.494875 0.536154 -0.106992
-0.079759 -0.018794 0.372161
-0.066482 0.379477 0.422765
-0.457513 0.630215 -0.046666
-0.366804 0.118878 -0.198523
-0.282121 -0.793834 -0.128222
-0.272665 -0.309869 -0.408818
-0.258813 0.183901 0.254602
-0.330684 -0.204455 -0.285556
0.177648 -0.300579 -0.076229
-0.438190 0.398334 0.024040
0.532179 0.594856 0.077141
-0.314218 -0.736638 0.091159
0.478874 0.288364 -0.088482
0.184742 0.218097 -0.369285
-0.009174 -0.620378 0.241222
-0.195075 -0.341833 0.109701
-0.282722 0.020739 -0.299240
-0.437991 -0.452340 -0.282889
0.002367 -0.775135 -0.054234
-0.178233 -0.517239 0.163741
0.051534 -0.159103 0.267576
0.461957 0.394171 -0.112512
0.067345 0.556490 -0.312629
-0.384546 -0.401981 0.086430
-0.061918 -0.681708 0.263682
0.200780 0.715396 -0.055193
-0.387723 -0.601791 0.081276
0.153195 0.385495 -0.373301
0.163068 -0.067855 0.348722
-0.397716 0.187591 -0.227895
-0.401427 -0.560871 -0.271931
-0.008292 -0.073615 0.332992
0.139930 -0.610141 -0.129437
0.269050 0.668299 0.192271
-0.035256 0.457794 0.423797
-0.358076 -0.289124 -0.427080
-0.106593 0.489698 -0.307449
0.547319 0.518071 0.008721
0.121239 0.720315 0.149423
-0.077738 -0.678563 0.239272
-0.073290 -0.245009 -0.197021
0.292838 0.634392 -0.173994
0.127631 0.664290 0.287111
0.259075 0.637960 0.268132
0.514444 0.474156 0.114577
0.304491 0.036953 -0.219577
-0.241692 -0.681173 -0.350053
-0.281219 -0.360038 0.114977
0.242837 0.644990 -0.177409
0.174947 -0.797154 -0.007689
0.321829 0.553593 0.314116
-0.183692 0.514267 0.313535
0.070304 -0.797142 0.065281
-0.136398 -0.286615 -0.361562
0.342570 -0.056192 0.067653
0.048047 -0.079503 -0.140354
0.385748 0.721715 -0.133028
0.203864 -0.647074 0.093803
0.048906 0.681370 -0.161671
-0.435856 -0.572756 -0.153253
-0.366816 -0.263724 -0.036915
0.359312 0.370844 -0.265645
-0.139101 -0.412506 0.168510
0.086433 0.608718 -0.267803
-0.159805 -0.696814 0.242096
0.307785 0.679505 -0.146177
-0.262356 -0.766576 0.187992
0.204253 0.729345 0.049260
0.263698 -0.488732 0.159170
0.397834 0.026070 -0.069620
-0.384807 0.365313 -0.203553
-0.443206 -0.464428 -0.257963
-0.355853 -0.737117 -0.145932
-0.187972 0.260640 -0.304326
0.237113 -0.797985 -0.048951
-0.407606 -0.627069 -0.176758
-0.289549 -0.632615 -0.349381
0.142370 0.120964 0.517923
0.385807 0.375822 0.330511
-0.230173 -0.287751 -0.385891
0.201336 -0.204629 0.290228
0.240458 0.203879 -0.343549
0.085954 -0.485132 -0.246250
-0.297154 -0.790366 -0.172862
-0.005003 -0.604265 -0.360263
-0.096118 -0.794785 -0.082758
0.020091 0.675785 -0.163954
0.191923 0.269420 -0.370632
-0.391996 0.422154 -0.198611
0.095115 -0.327407 -0.139172
0.164210 -0.706214 0.123234
-0.237621 0.027333 0.066004
-0.361109 0.015881 -0.315383
-0.102797 0.160183 0.416011
0.029017 -0.099607 -0.094654
-0.178189 -0.794629 -0.022560
-0.107651 0.090852 -0.283623
0.292307 -0.420103 0.021978
0.385386 0.791477 -0.078239
-0.155686 -0.389335 0.150464
0.049081 -0.704841 0.293077
-0.388863 0.224919 -0.061773
0.043362 0.120438 0.518489
0.220189 -0.360078 -0.067987
0.369138 -0.002218 -0.073963
0.054086 -0.468040 -0.331179
0.258021 0.722874 -0.069817
0.290742 -0.449938 0.049192
-0.270167 -0.794574 -0.174001
-0.359317 0.180127 0.003215
-0.279534 0.098234 0.120387
-0.275178 0.083652 -0.134643
-0.048052 0.246578 0.467688
-0.345144 0.454041 -0.211512
-0.199164 0.030899 0.274792
-0.237909 -0.217935 -0.058044
-0.420944 0.283211 -0.104865
0.486034 0.707659 0.055299
0.115085 -0.281285 -0.086144
0.014539 0.151406 -0.361088
-0.109917 -0.474600 0.194940
0.321442 0.028367 -0.193285
0.471818 0.459795 -0.105569
0.405796 0.264973 -0.224244
0.196816 -0.610304 -0.091053
0.105747 0.596864 -0.276310
-0.173052 -0.209973 -0.121995
-0.338839 -0.167284 -0.358324
0.427723 0.438402 0.271143
0.478216 0.388480 -0.076909
-0.301098 -0.055415 -0.287230
-0.186659 0.383277 -0.296402
-0.025345 -0.795838 0.109288
-0.057690 -0.797567 0.214212
0.007473 -0.056199 0.373194
-0.400847 0.386216 0.023834
0.104431 -0.002976 0.455904
0.162953 0.603912 0.353995
0.429374 0.052728 -0.038216
0.396701 0.501880 0.270340
0.053892 0.569615 -0.302944
0.476265 0.384718 0.193673
-0.425542 -0.362664 0.009605
0.060792 0.091438 0.498893
0.469474 0.296357 -0.114228
-0.412984 -0.026130 -0.285547
0.258558 -0.274136 0.267284
0.160545 -0.350664 -0.107471
-0.292123 -0.208663 -0.118232
-0.238733 -0.332957 -0.415161
-0.302888 0.026915 -0.310793
0.324083 0.591510 0.263900
-0.129089 0.662781 -0.002966
-0.470615 -0.178228 -0.374192
-0.015077 0.055177 -0.295214
-0.424509 -0.609592 -0.010640
-0.047788 0.226470 -0.366650
-0.357983 0.037412 -0.286036
0.436343 0.710192 0.056186
-0.078377 -0.366516 0.211557
-0.425158 -0.111106 -0.243251
0.148717 0.553956 0.393953
0.192512 -0.463322 -0.093600
-0.257152 0.257569 0.272619
-0.132451 0.536005 0.341310
-0.079272 -0.762089 0.078518
0.285209 -0.126321 0.107403
0.174383 -0.774487 -0.152276
-0.328202 -0.516000 -0.377978
-0.431211 -0.195144 -0.242749
-0.413111 -0.641592 -0.044270
-0.277404 -0.450441 -0.421324
0.230515 0.136617 0.500174
0.071072 -0.148960 0.277749
0.127013 0.008159 -0.277378
0.039215 -0.790071 0.284003
0.077046 -0.143783 0.278446
-0.400999 -0.602489 0.061263
0.272035 0.360166 -0.330642
-0.195808 -0.632970 -0.391684
-0.090540 -0.463115 -0.430816
-0.185185 0.546808 0.280296
0.330988 0.750266 -0.094921
-0.186504 -0.761651 0.241762
0.459466 0.826452 0.070206
0.037090 -0.093406 -0.110602
-0.129229 -0.591423 -0.413171
0.192947 0.189737 -0.359972
0.135003 0.497191 -0.337872
0.258781 0.413214 0.386695
0.172965 -0.509284 0.260771
-0.450421 -0.400734 -0.020944
-0.149977 -0.379942 0.151397
0.032997 -0.184689 0.263927
-0.349559 -0.255113 -0.032221
0.146243 -0.393278 0.341977
0.301098 0.747531 0.105097
0.380983 0.743997 -0.119979
-0.251564 -0.208140 -0.085600
0.138956 0.728103 0.074898
-0.480977 0.463862 -0.115052
-0.292869 0.610018 0.014327
0.384842 0.583765 -0.173637
-0.279538 0.083915 0.055374
-0.445616 0.598577 -0.094464
-0.185662 -0.794091 0.182665
0.039754 -0.162146 0.258830
0.252210 0.585455 -0.229101
-0.338719 0.172881 -0.114172
-0.008211 -0.651766 -0.330337
-0.074353 -0.394807 -0.412334
0.485394 0.788423 -0.071040
0.302050 -0.389214 0.203524
0.275554 -0.218481 0.044418
-0.038509 -0.106192 0.217282
0.199479 -0.228037 -0.039110
-0.128656 0.661294 0.118251
0.443719 0.520590 0.123489
0.009598 0.046616 -0.296214
-0.313113 0.526237 0.045329
-0.295506 0.201092 0.208228
-0.301749 0.082371 -0.140629
0.070306 -0.100147 -0.106093
-0.096654 -0.598115 0.178870
-0.131160 -0.592293 0.166901
0.297893 -0.779105 -0.028491
0.449953 0.583101 -0.146369
0.001294 0.242463 0.522901
0.073402 -0.436616 -0.201962
-0.257936 0.081791 -0.276789
-0.144085 0.199135 -0.319243
-0.121964 -0.410460 -0.430827
0.089997 -0.515245 -0.237978
-0.158035 0.243445 0.332221
0.106953 -0.657989 0.210837
-0.460444 -0.494863 -0.139619
-0.347261 0.083827 -0.237457
-0.067836 0.178801 0.469329
-0.093060 0.441618 0.405940
0.278071 0.753301 -0.014993
-0.189722 0.287510 -0.304369
-0.091697 -0.492857 -0.430198
-0.157430 0.500121 0.345634
-0.273234 0.491688 0.167916
0.209856 0.444889 -0.336444
0.026541 -0.080922 0.332190
-0.028208 -0.665702 -0.335496
-0.485807 0.493601 -0.106991
0.185587 -0.231237 0.312764
-0.371011 0.221635 -0.144055
0.501322 0.786537 0.060037
-0.384301 0.014128 -0.236588
-0.120299 -0.687346 0.231661
-0.042453 -0.781807 0.295190
0.244006 0.735003 -0.002866
-0.067344 -0.105392 0.169145
-0.167319 -0.794625 -0.174721
0.178898 -0.069009 -0.150509
0.523138 0.575658 -0.084954
0.176398 -0.728894 0.104239
-0.249643 0.448676 0.275659
-0.346846 -0.635278 -0.292470
-0.177950 -0.399870 -0.433786
0.299318 0.043440 0.405760
0.151394 -0.733090 0.134214
0.052670 0.155008 -0.367214
0.340607 0.315064 0.350458
-0.082615 0.669867 -0.072395
0.201638 -0.088602 0.286174
-0.331709 -0.409801 0.124286
-0.078059 0.513030 0.387702
-0.215533 0.617735 0.031316
-0.239741 0.148357 -0.264699
0.103436 -0.336249 -0.138685
0.022949 -0.099980 0.288244
0.416212 0.552692 -0.162692
-0.398968 -0.349942 0.038145
0.300400 0.201106 0.441754
-0.193873 0.001931 0.240619
-0.049585 -0.487830 -0.416068
-0.403706 0.489206 -0.178532
-0.390344 -0.685971 -0.091431
0.271021 -0.795702 -0.044995
-0.049571 -0.793725 -0.113725
-0.446805 -0.499921 0.009614
0.526066 0.671385 -0.086137
0.050624 0.009052 0.450515
0.266758 -0.446820 0.229905
-0.167611 0.025102 0.320073
0.038802 0.655625 0.294338
-0.185328 0.336345 -0.304685
0.330936 0.516287 -0.227013
-0.152941 0.024677 0.340022
-0.235605 -0.418515 -0.433094
-0.278378 -0.217441 -0.076745
0.208538 0.720783 0.114520
0.030350 -0.793586 -0.251251
0.370630 0.705591 -0.140229
0.201487 -0.448681 0.297264
0.047895 0.605925 0.355719
0.145034 -0.155732 -0.050387
0.005775 -0.054276 -0.172652
-0.246709 -0.354138 -0.422797
-0.221855 -0.792664 0.038028
-0.004197 -0.102446 -0.069106
-0.043535 -0.280032 -0.283229
0.413990 0.359603 0.314123
0.100180 0.596034 0.367112
0.106624 -0.269458 -0.078903
-0.067429 0.524919 0.385591
-0.079318 0.202955 0.436880
-0.052211 0.266016 0.441659
-0.204694 -0.793744 -0.118824
-0.139602 0.252278 0.347168
-0.336781 0.067407 -0.273284
0.494972 0.250855 0.166286
0.096358 -0.549780 -0.161359
-0.033766 -0.248427 -0.040017
-0.466819 -0.381259 -0.242746
-0.302415 0.114337 -0.043822
-0.332717 -0.291378 -0.420634
-0.296800 0.554286 0.059933
-0.410308 -0.648591 -0.074759
0.532132 0.824227 0.002663
-0.439930 -0.463333 -0.268703
0.202138 -0.546328 0.183497
-0.018829 -0.798282 0.186441
-0.312999 0.400886 0.104425
0.391352 0.735039 0.074914
0.416990 0.346921 0.314079
0.247709 -0.024551 0.366116
-0.104767 0.108832 0.431053
0.235231 -0.325118 0.308079
-0.240219 0.062173 0.214864
-0.261124 0.218974 -0.259344
-0.312896 0.341974 0.180763
-0.263001 0.107748 -0.276604
-0.278352 0.485709 0.157726
0.306626 0.737041 -0.094054
0.437946 0.764505 -0.105197
-0.236015 -0.501257 0.163710
0.257610 -0.285536 0.273604
0.353936 -0.046766 0.087121
-0.150069 -0.052565 0.064771
0.299393 0.617149 0.256064
0.498650 0.333991 0.026710
-0.259160 0.001404 -0.242587
0.414012 0.493711 0.246496
-0.461710 -0.162527 -0.261778
0.147716 0.651714 0.302941
0.135999 0.134666 0.523468
-0.310281 -0.396464 0.127433
-0.017427 -0.434863 -0.394391
0.487288 0.231048 0.196529
-0.213667 -0.261099 -0.352723
-0.376331 0.221473 -0.104360
0.002157 -0.758960 -0.027021
-0.275472 -0.026303 -0.269453
0.377821 0.299790 -0.256131
0.063493 -0.581718 -0.292315
-0.517537 0.548719 -0.012328
0.341818 -0.002969 -0.122213
0.159280 0.653337 -0.198369
-0.030935 -0.680649 0.282142
0.317818 0.299950 0.369179
0.087588 -0.614574 0.230952
0.090195 -0.793887 0.169906
0.053287 -0.387490 0.335787
0.409473 0.098761 -0.154393
0.566529 0.659648 0.035499
0.314017 0.709982 -0.124537
-0.076636 0.287534 -0.363231
-0.452997 -0.539902 -0.097354
-0.389124 -0.649344 -0.201971
0.314000 0.678751 0.113252
-0.412177 0.328125 -0.167655
0.223808 -0.390344 -0.068289
-0.340610 0.282477 -0.217463
0.190973 0.405380 0.419228
0.501013 0.392224 0.113310
-0.221164 0.182975 -0.270874
-0.345056 0.175834 -0.123948
-0.048266 0.685805 0.185822
0.332117 0.444425 0.358348
-0.233597 0.114490 -0.261683
-0.017196 -0.224847 0.198343
-0.393417 0.247546 -0.111615
-0.332252 0.161200 -0.113793
-0.429243 -0.259495 -0.416636
0.017891 -0.137594 0.244405
-0.184043 0.447062 -0.277796
0.063778 -0.765345 -0.270730
0.433343 0.067207 0.217176
-0.230848 0.124131 0.272763
-0.190111 -0.206870 -0.132328
0.489134 0.267131 -0.051093
0.316356 0.043956 -0.216488
0.005543 -0.271855 -0.145880
0.072489 0.725251 0.093292
-0.265392 0.221471 0.257979
0.276654 0.707277 -0.110009
-0.430697 -0.360912 -0.002330
-0.340939 -0.152774 -0.292884
-0.098895 0.588734 0.318020
0.470151 0.321438 -0.110308
-0.058397 -0.109398 0.048488
-0.369015 0.501638 -0.186521
0.133619 -0.764699 -0.195275
0.322526 -0.027002 -0.101815
0.065519 -0.796883 -0.173537
0.183898 0.000113 0.440066
-0.431429 0.271617 0.044142
-0.272205 0.160327 0.229178
-0.386467 0.219866 -0.053792
-0.478908 0.349198 0.020909
-0.358406 0.181782 0.028391
-0.245142 0.539574 0.170807
-0.398661 -0.583154 -0.256667
-0.213286 0.618950 -0.003584
-0.031084 -0.254531 -0.113073
0.060260 0.672053 -0.183344
-0.316389 0.508511 -0.192511
0.035319 -0.533043 0.283723
0.148082 -0.479300 -0.129240
0.172216 -0.456986 0.306271
-0.340088 -0.738804 -0.204294
0.469058 0.170808 0.237977
0.427125 0.029042 0.113321
-0.116831 -0.716888 0.238984
-0.203128 0.094033 0.304337
-0.159516 -0.794147 -0.168052
0.056569 0.725995 0.049237
-0.213363 -0.576878 0.171112
0.378270 0.412862 0.332460
-0.112411 0.186274 0.381556
0.378941 0.382132 0.335412
0.465767 0.193909 0.255902
-0.237669 -0.796066 -0.203341
0.052258 -0.796707 0.063756
-0.023421 -0.760396 -0.283616
0.181351 0.680843 -0.148175
0.159490 0.295301 0.471837
0.208003 -0.459903 -0.079862
0.069483 -0.574806 0.255821
-0.277013 0.274828 -0.251944
0.014461 -0.418396 -0.362949
0.070218 -0.680113 -0.238750
0.268534 -0.346271 -0.022180
-0.269360 0.120777 0.206817
-0.110776 -0.785457 -0.288856
-0.123684 -0.005997 -0.166505
-0.172122 -0.622222 0.175016
-0.191379 -0.620822 -0.398014
0.013545 0.573426 -0.295756
-0.102923 -0.553705 0.184958
-0.250738 0.098172 0.230905
-0.334742 -0.551892 0.141268
-0.360972 0.420865 0.018391
0.168341 0.579404 -0.274693
-0.267389 0.271816 0.269421
0.409445 0.575187 0.092381
0.110422 -0.774161 -0.225952
-0.332213 0.118081 -0.263487
-0.214091 0.027153 0.233577
-0.127646 -0.317683 -0.386358
0.496066 0.224838 0.156442
0.035244 -0.131135 -0.044951
0.115346 0.566879 0.389214
-0.058944 0.377928 0.425645
0.050745 0.301297 0.527621
0.195295 0.579627 -0.263768
0.053686 -0.020472 -0.242262
0.203822 0.197689 0.511781
0.368905 0.215629 0.385670
0.032459 0.269128 0.541655
-0.299861 -0.513047 0.156779
0.009209 0.706409 0.168065
0.080183 -0.363301 -0.182096
0.261683 0.292386 -0.341388
0.274062 0.751740 -0.005037
-0.160403 -0.011624 -0.093300
0.486395 0.577048 0.082370
0.021819 -0.483409 -0.369798
-0.115354 0.427113 0.396730
0.122604 0.077461 -0.329053
-0.449706 -0.341616 -0.101449
0.194068 0.034856 0.454310
0.111037 0.703600 0.210865
-0.131773 -0.250334 0.009743
0.006304 0.680866 0.241327
-0.112404 0.149875 0.401268
0.090834 0.720644 -0.039637
0.422670 0.712305 -0.134026
0.279351 -0.738718 -0.124968
-0.355929 0.065920 -0.212977
0.219681 -0.786257 0.040226
0.459919 0.089132 0.164516
0.063372 -0.791935 0.252423
0.023596 -0.770936 -0.038157
0.073235 0.580371 -0.294535
0.082376 0.178419 0.529101
-0.357775 -0.650884 -0.264244
-0.249273 0.029735 -0.241523
0.167699 -0.614170 -0.112971
0.124149 -0.500206 -0.147963
0.024438 -0.053517 -0.181863
-0.457859 -0.427596 -0.033412
-0.447854 -0.182232 -0.249597
0.010914 0.110903 -0.340048
0.184696 -0.772763 -0.149139
0.222619 0.328204 -0.357831
-0.459439 0.461362 -0.140863
0.076981 0.609191 0.354627
-0.321034 0.222173 0.141567
0.254921 0.691833 -0.122893
-0.093652 0.671504 0.165598
-0.481838 -0.268959 -0.267906
-0.334042 -0.772308 -0.079692
0.131958 0.580166 -0.285268
-0.023709 -0.222196 0.135871
0.135029 -0.317469 -0.105058
-0.294495 0.281924 0.233653
-0.290307 0.099644 -0.063810
-0.095761 -0.226901 -0.077584
0.134991 0.474523 0.428125
-0.378266 0.626844 0.001749
-0.164741 -0.265030 0.040327
0.126367 -0.127082 0.286629
-0.265748 -0.789434 0.065351
0.251524 0.659500 -0.159920
0.150693 0.020680 -0.285126
-0.394868 0.247322 0.071188
0.069342 -0.266617 -0.083759
-0.435078 0.302253 -0.099640
0.102709 0.010408 0.465102
-0.149675 0.564074 0.301795
0.458040 0.627418 0.060124
0.213085 -0.162415 -0.025325
0.518933 0.654469 -0.094834
0.168699 -0.790254 0.068331
-0.330679 0.032864 -0.175368
-0.137876 0.477485 0.370813
-0.224626 0.426245 0.316425
0.473217 0.598471 -0.133031
0.023887 -0.368985 -0.317619
-0.277895 -0.689450 0.160629
0.502776 0.380106 0.042536
-0.096937 0.073822 -0.276295
-0.423576 -0.328830 -0.027229
0.187210 0.124984 0.512935
-0.040868 0.009210 0.430515
0.432922 0.393448 -0.167904
0.055899 0.249904 0.549777
0.061968 0.244517 -0.389524
-0.422139 -0.620833 -0.110702
0.302277 -0.256161 0.136509
-0.066834 -0.247050 0.027409
0.004214 -0.653565 0.260097
-0.416822 -0.430795 -0.336507
-0.250022 -0.373613 0.125519
0.050953 -0.056090 0.388896
0.561218 0.614170 -0.017384
-0.275482 0.100910 0.149449
0.042838 -0.236634 -0.040234
-0.112998 0.258730 -0.345928
-0.357504 0.579933 0.033501
-0.390878 -0.642688 -0.206444
-0.443329 0.512506 0.012584
-0.243779 0.176976 0.264601
0.419262 0.493784 0.233073
0.293673 -0.425071 0.194051
-0.357984 -0.727685 -0.165573
-0.079296 0.525486 -0.299560
-0.314166 0.098572 -0.269877
-0.296011 -0.006638 -0.200668
-0.031571 0.560916 -0.293493
-0.111883 -0.063251 -0.025434
0.003718 0.369484 -0.379789
-0.358632 0.010727 -0.323506
-0.074097 -0.363350 -0.395351
0.454362 0.825720 -0.049400
0.391505 0.219808 0.367196
0.359613 -0.041306 0.101960
0.135154 -0.182993 -0.045001
0.385373 -0.006422 -0.013670
0.092306 -0.797138 0.050395
0.166193 0.259895 0.502744
0.160246 0.184887 -0.368066
-0.036945 0.651834 -0.176404
-0.109868 0.348979 0.396062
0.351962 0.578383 0.232904
-0.485010 -0.237757 -0.279489
0.173257 -0.073605 0.331349
-0.262389 0.582022 -0.114238
0.019088 0.720096 0.057615
-0.411219 0.256132 -0.066330
-0.419786 -0.121300 -0.403995
0.233385 -0.797995 -0.093438
-0.382435 0.629380 -0.047661
-0.123104 0.255598 -0.340999
-0.436412 0.344342 -0.142092
-0.043696 -0.525874 0.249608
-0.134197 -0.218235 -0.125416
0.112077 0.082099 0.479445
0.454755 0.099056 -0.050204
-0.149524 -0.451387 0.160615
-0.166082 0.237329 0.322159
-0.334223 0.343780 -0.228957
0.415243 0.267562 0.332575
0.186959 -0.621504 0.129831
0.108598 0.727093 -0.004537
-0.020226 -0.262723 -0.153575
-0.202544 0.624393 0.030977
0.085075 -0.252350 0.328311
0.017036 0.623279 0.332124
-0.379477 -0.527299 -0.327665
-0.076345 0.156746 -0.336253
-0.095155 0.087279 -0.287112
-0.503210 0.399990 -0.018262
-0.013133 -0.110806 0.241467
0.395550 0.228573 -0.230447
-0.484568 0.544932 -0.098604
-0.166207 0.372418 0.366884
0.164499 -0.358601 -0.107512
0.003750 -0.767783 -0.046037
0.034633 -0.535312 -0.354130
0.012256 -0.070691 -0.145761
-0.075835 0.690814 0.070630
0.423521 0.079430 -0.104765
-0.011546 -0.290211 -0.252584
0.194697 -0.062256 0.340497
-0.112220 0.475971 -0.310633
0.014976 -0.324449 -0.270911
0.286716 -0.200572 0.115564
0.426768 0.830577 0.077752
0.140355 0.194604 0.532311
-0.185763 0.592976 0.206214
0.300281 0.255436 0.387023
0.007706 -0.191930 0.231900
-0.048487 -0.779658 -0.088665
-0.239214 0.354315 0.312312
0.432703 0.507640 -0.150980
0.439451 0.557194 -0.150744
-0.109438 -0.794760 -0.200377
0.406005 0.041059 0.244023
-0.384068 0.529269 -0.167998
0.238747 -0.454886 -0.048662
-0.075895 -0.098723 0.052042
0.450774 0.504021 -0.136899
-0.111745 -0.462418 -0.435578
-0.249340 0.036448 -0.248519
-0.185271 0.000252 0.258038
0.540242 0.626158 0.068021
0.562021 0.641649 -0.022509
-0.294227 -0.358048 -0.424473
-0.020339 -0.216318 0.102346
-0.483433 0.357636 -0.039047
-0.270910 0.082670 -0.282670
0.358051 0.491929 -0.217358
0.461140 0.112497 -0.050039
0.198082 -0.217076 0.298936
-0.102193 -0.066041 0.260378
-0.258234 -0.792555 0.029531
-0.020879 -0.025820 -0.205619
0.379099 0.224205 -0.248281
0.441787 0.278617 0.300614
-0.047617 0.177613 -0.354536
0.450795 0.133943 -0.105009
0.121921 -0.217777 -0.050744
0.350577 0.798808 0.087748
-0.022971 0.630867 0.310932
-0.358017 -0.166868 -0.272119
0.103469 0.127213 0.514235
0.167116 -0.497463 0.276569
-0.300765 -0.581956 0.155642
-0.275836 0.190888 -0.267754
0.374785 0.564638 0.206072
-0.451798 -0.415161 -0.016453
0.006736 0.300518 -0.385136
-0.121426 -0.075565 0.092004
-0.230393 0.147511 0.272393
-0.155337 0.596079 -0.165389
0.089921 -0.797535 0.004285
-0.013243 -0.780045 0.305810
-0.080407 0.627767 0.282001
-0.369327 -0.543413 0.119272
0.020663 -0.764032 0.017230
0.413987 0.157158 -0.185484
-0.079547 -0.661035 -0.366719
0.216045 0.677519 -0.143539
0.006639 0.655575 -0.197103
0.005075 0.175299 -0.367882
-0.003457 -0.181139 0.202993
0.563444 0.691249 0.042012
-0.075507 -0.734889 0.285715
-0.418655 0.570044 0.014272
0.269369 -0.378029 0.269446
0.514094 0.572739 -0.095219
-0.374658 0.156525 -0.161650
-0.035254 0.676820 0.225912
-0.219247 0.597854 0.112619
0.311611 0.760551 0.099520
-0.164149 0.529066 0.320251
0.129871 0.216109 0.532347
-0.057986 -0.793875 -0.126989
0.026411 0.438865 0.439705
-0.076458 -0.773776 0.021714
0.414987 0.018087 0.023032
0.398833 0.279242 -0.235016
-0.030091 -0.300424 0.241984
0.310905 -0.382760 0.176988
0.004796 -0.261670 -0.096511
0.162277 0.663716 -0.182923
-0.359467 -0.609586 0.109834
-0.421547 -0.511810 0.062676
-0.060152 -0.674812 -0.348366
0.438764 0.495797 -0.144971
-0.426793 -0.120300 -0.399622
-0.400100 0.166217 -0.205154
0.324809 -0.048714 -0.043921
0.012561 -0.209839 0.252411
0.259765 -0.452043 -0.020938
-0.165029 0.572468 0.274259
0.509798 0.534907 0.099154
-0.384662 -0.300746 0.001174
-0.179492 -0.395628 0.135177
-0.376401 0.126598 -0.208077
-0.039361 0.160795 0.503037
0.500656 0.248262 0.128750
0.018535 0.423472 -0.372545
-0.352293 -0.388014 0.103950
0.433902 0.290361 0.308565
0.413970 0.323157 -0.212602
-0.508833 0.423457 -0.000842
0.559468 0.572268 0.006533
0.143758 0.539272 0.402756
-0.090936 -0.793045 -0.137561
-0.373782 -0.461376 0.112191
0.187175 -0.672957 0.106054
-0.130570 0.653947 -0.043682
-0.238355 0.111380 0.261795
0.014844 -0.279969 0.293688
0.365805 -0.026029 -0.007955
0.199695 0.497011 0.408116
-0.106172 -0.792866 -0.147413
-0.270272 0.435055 0.247168
0.125011 0.309467 0.490609
-0.035308 0.536498 0.391632
-0.349631 -0.374247 -0.416356
0.164858 0.344730 -0.376473
-0.330270 -0.264464 0.004109
0.378823 0.277209 0.348628
0.066877 0.281545 -0.392283
-0.279189 0.257127 0.252853
-0.157748 -0.035980 0.005073
-0.117223 0.161091 -0.319464
0.386199 0.704666 -0.141475
-0.372068 -0.451007 0.111568
0.117939 -0.167164 0.297431
0.120035 -0.745832 0.187025
-0.144187 -0.239241 -0.292379
-0.282407 0.486612 0.138558
-0.332101 -0.664199 -0.288174
-0.443757 -0.263586 -0.402754
0.004986 -0.483019 0.296221
0.006187 -0.589936 0.249699
-0.000906 -0.793204 -0.253572
0.269105 -0.010399 0.369296
0.187654 -0.687243 0.101780
0.122807 0.089272 -0.335572
0.397268 0.754917 0.077420
0.359419 0.452664 0.339825
-0.097721 0.201895 0.400816
-0.456737 0.473641 -0.143048
0.065673 -0.063075 -0.176551
0.164380 -0.058900 0.367259
0.329147 -0.035816 0.234336
-0.303930 0.115777 -0.019047
-0.245991 -0.197087 -0.143852
-0.305915 -0.637430 -0.333625
-0.001174 0.682405 0.233713
-0.330602 -0.127278 -0.287342
-0.193414 0.027988 -0.148623
0.472486 0.103920 0.059024
-0.235471 -0.618918 -0.386586
0.431391 0.742592 -0.119285
-0.042961 -0.653619 0.242051
-0.332772 -0.766248 -0.027204
-0.162474 -0.013096 -0.082180
-0.375050 -0.432571 0.104789
-0.304744 0.221253 0.196749
0.016060 0.516080 0.413985
0.423126 0.049727 -0.052930
-0.011337 0.712307 0.011740
0.023234 -0.550703 -0.360077
0.016207 0.267812 0.529944
-0.201541 0.582746 -0.137137
-0.283028 0.572624 -0.133042
-0.000120 -0.525977 0.277150
-0.412580 -0.270284 -0.155065
0.010162 0.499822 -0.343369
0.233243 -0.679872 -0.119508
0.293323 -0.243525 0.174318
0.023031 0.364615 0.448527
-0.201176 -0.207130 -0.201383
0.445904 0.782747 0.066677
0.233261 0.077851 0.472402
0.060112 0.680065 -0.167475
0.114144 0.429764 0.439771
0.017669 -0.364519 -0.321538
-0.267524 0.457577 -0.225592
0.463331 0.316791 0.251934
-0.277816 -0.263625 0.028825
-0.519646 0.490317 -0.016369
0.139858 0.636847 -0.226333
0.480852 0.178531 -0.052584
0.311441 -0.366639 0.184878
0.056342 -0.086738 -0.128018
-0.138762 0.535035 -0.256434
0.124306 0.098220 -0.340433
-0.376003 0.163797 -0.266947
0.230197 -0.658397 0.050236
-0.243286 0.402946 0.302790
0.077266 0.597940 -0.278611
-0.109874 0.329451 0.390530
0.284314 -0.196247 0.149164
-0.380880 -0.218681 -0.425028
-0.210148 -0.793357 -0.083763
0.158092 -0.019847 0.433927
0.543696 0.514777 -0.009891
0.206542 0.143368 -0.340447
-0.029328 0.280373 -0.376917
-0.021945 0.664431 -0.161792
-0.435966 0.505753 0.011688
-0.004941 -0.119545 -0.033341
-0.146405 -0.794608 0.153228
0.484253 0.401015 -0.062860
-0.412894 0.415893 -0.185933
-0.157999 0.231579 0.332245
-0.325491 0.147816 -0.087180
-0.060904 -0.111899 0.071660
0.185838 0.458941 -0.339945
0.112051 0.648394 -0.217935
-0.430798 0.263015 0.020336
-0.387334 -0.159166 -0.417048
-0.054560 -0.314139 -0.343090
-0.403021 0.563107 0.015619
-0.089893 -0.032372 -0.149722
0.395631 0.002422 -0.005428
0.004779 -0.755804 -0.286926
0.469419 0.329649 0.232541
-0.301051 -0.758973 0.086475
0.061688 0.520800 0.415886
0.225962 -0.089661 0.266795
0.193105 -0.508648 -0.084403
0.187752 0.288395 0.445290
-0.093263 0.635734 0.257802
-0.436696 -0.521096 0.032329
0.217221 0.381029 0.401479
-0.078788 0.194461 0.444992
-0.142876 -0.025632 -0.086693
0.186342 0.719146 -0.039239
-0.157686 -0.026862 0.258578
0.371247 0.655010 0.073567
0.015734 0.301443 0.509662
-0.093542 -0.680185 -0.358326
0.091321 0.359501 -0.387309
0.295077 -0.044188 -0.101933
-0.005116 0.630744 0.317044
0.556978 0.634578 -0.036480
-0.227173 0.297469 0.306482
0.111116 0.502423 0.422755
0.319859 0.473495 -0.259418
0.298217 -0.098893 0.122480
-0.056346 0.120139 0.486486
0.007500 -0.417958 -0.369709
0.400720 0.613016 -0.165358
0.011426 0.561316 0.386589
-0.279208 -0.708867 0.172571
-0.464726 -0.476617 -0.109113
-0.330156 0.086591 -0.263676
0.040196 0.308518 0.516929
0.045171 0.722430 0.095126
0.450483 0.072655 0.167277
-0.321661 0.107325 -0.137713
-0.053428 -0.240875 0.024944
0.235801 0.318332 0.396586
-0.131335 -0.794377 0.104144
-0.124359 -0.227903 -0.221269
0.262154 -0.772395 -0.131380
-0.132957 -0.054645 0.230245
-0.471701 -0.127132 -0.297499
0.415952 0.189352 0.346977
-0.305460 -0.562047 -0.373398
-0.118536 0.129126 0.404734
-0.016612 -0.188512 0.087467
0.143033 -0.797670 -0.057390
0.224121 -0.109335 -0.051862
-0.022031 0.267848 0.496039
0.267509 -0.420104 -0.022197
-0.258363 0.342548 -0.259468
-0.082264 0.662468 -0.099024
0.290238 0.269170 0.383684
0.192754 -0.287396 0.328349
-0.208230 -0.793006 0.185164
-0.428661 -0.500397 0.051088
-0.453214 -0.469255 -0.217410
0.296385 -0.101189 0.101781
0.238852 -0.261783 0.285269
-0.354741 -0.235047 -0.106306
-0.158195 0.075152 0.358186
-0.104748 0.413984 -0.335250
-0.114011 -0.075929 0.187652
-0.163114 -0.545658 -0.427746
-0.111082 -0.572924 0.169036
0.392535 0.554491 -0.173729
-0.353468 -0.645290 0.097487
0.439346 0.210057 0.313615
0.142556 0.674530 -0.172181
-0.275229 0.536314 0.086584
-0.316168 0.122519 -0.126165
0.130886 -0.370220 0.347687
0.263255 0.700419 0.135227
0.086136 0.726771 0.089178
-0.008580 -0.575599 0.250796
0.347321 -0.016816 -0.084334
-0.290074 0.054526 -0.296761
0.223083 0.670187 -0.153394
-0.021230 -0.781693 0.303463
-0.077090 -0.024736 0.365955
-0.032986 -0.137483 0.074746
0.226580 -0.503580 0.214934
0.325500 0.040206 0.377110
-0.296333 0.610522 -0.052656
-0.058150 -0.716133 0.295378
0.000025 0.560487 0.384788
-0.265791 0.529124 0.124769
0.179174 -0.579118 0.174356
-0.130911 0.463344 0.379802
-0.114327 0.598202 -0.203762
-0.158258 -0.796878 -0.013850
-0.136813 -0.789045 0.223568
-0.290925 -0.771755 0.074212
-0.411129 -0.446519 0.071283
0.556141 0.552054 0.023008
-0.383231 0.521673 -0.172688
-0.002566 -0.722870 0.316526
0.245765 0.662657 0.236407
0.114420 0.269216 -0.390474
0.129643 0.360475 0.441185
-0.027320 0.289075 0.464465
-0.148069 -0.545051 0.162690
-0.233518 0.510097 -0.204174
-0.149412 0.339651 -0.326207
0.250262 0.708146 0.131457
0.432724 0.087653 -0.095103
0.247579 0.054592 0.449570
-0.227710 0.544522 0.208801
-0.147022 0.604642 -0.157941
-0.351433 -0.451852 0.125594
-0.095068 -0.067553 -0.060068
-0.173896 0.528281 0.312400
0.306333 -0.074578 0.000294
0.431688 0.082906 0.248160
-0.285533 0.116843 0.135577
0.287078 0.063757 0.431272
0.495612 0.798124 -0.058308
-0.305874 -0.642058 0.141918
-0.040325 0.478776 -0.340268
0.284073 0.289959 -0.329356
0.093523 -0.405065 -0.182496
0.430606 0.625268 -0.153739
-0.013553 0.691057 -0.096210
-0.118028 -0.774148 -0.008574
-0.230899 0.454875 0.298081
0.058738 -0.616067 0.241346
0.357528 0.483769 -0.222136
-0.286066 0.267721 -0.249877
0.213247 -0.524716 -0.056189
0.229241 0.055569 -0.285402
-0.053551 0.677514 0.206489
-0.375198 -0.236317 -0.170206
0.235646 -0.459066 0.259564
-0.158135 -0.010923 -0.102009
0.308832 0.555333 -0.217655
0.123257 -0.196819 0.311359
-0.432963 -0.601445 -0.089705
0.405185 0.242413 0.348385
0.468022 0.431539 -0.102165
-0.265244 0.226514 -0.258453
-0.310111 -0.444698 -0.411881
-0.294729 0.463276 0.119096
0.351998 0.018381 0.311032
-0.067504 -0.794819 -0.189935
0.287910 0.762448 -0.003781
0.525591 0.647030 -0.089000
-0.138184 0.004182 0.339150
0.101124 0.527337 0.412723
0.398605 0.421711 -0.206676
-0.099249 0.353437 -0.349030
-0.385214 0.287355 -0.177673
0.379363 0.364030 0.333277
-0.056063 -0.770908 0.041293
0.034892 0.589906 0.368454
0.193665 0.295253 0.430193
0.101685 -0.146323 0.286629
0.269013 0.403062 -0.322214
0.278649 0.446576 0.384103
0.053500 -0.345106 -0.210263
-0.132985 -0.414280 -0.433279
0.268838 -0.306159 0.266591
-0.070023 0.608926 -0.222639
-0.397435 0.400169 -0.196427
-0.179490 0.163719 -0.285703
0.140388 0.201484 -0.377383
-0.004285 -0.568108 -0.376285
-0.028102 0.221877 0.502131
0.149824 -0.053834 0.385584
0.324235 0.763348 -0.071780
0.541159 0.501887 -0.003452
0.287679 0.278521 0.383859
-0.420643 -0.381298 0.032668
-0.187014 -0.675354 0.221923
0.023548 0.689095 0.230105
0.192769 -0.205176 -0.037090
-0.247696 0.058862 -0.101384
-0.431960 0.280968 -0.056703
-0.466844 -0.417141 -0.184550
0.208746 -0.467672 -0.076957
0.200932 -0.472594 0.278482
-0.061519 -0.558204 -0.408744
-0.300747 -0.225731 -0.327459
-0.376005 -0.268982 -0.039219
0.346953 0.009230 0.303128
-0.329211 -0.398996 -0.416494
-0.453203 -0.287221 -0.381292
0.189287 -0.453619 -0.097464
0.158459 0.480291 -0.339834
-0.301671 -0.714332 -0.284667
0.000419 -0.405192 0.305997
0.096118 -0.742524 -0.245070
-0.348257 0.338746 -0.222155
0.192651 0.026412 0.451633
0.228614 -0.127200 0.240213
-0.393719 -0.318805 0.013343
-0.466518 0.452655 -0.132808
0.553220 0.640334 0.060160
0.188929 -0.797790 -0.038712
0.223234 -0.775154 0.049296
-0.126755 0.644287 -0.086679
-0.094024 0.320859 -0.354735
0.344768 0.671358 -0.154788
0.114683 -0.770219 0.187384
0.031314 -0.108735 -0.076063
-0.320132 0.554757 -0.157591
-0.058519 -0.515340 0.240134
-0.260275 -0.325826 -0.414284
0.013486 0.700995 0.190788
-0.038391 -0.691015 -0.323497
0.297721 0.081128 0.434416
0.529950 0.463296 0.013460
-0.064203 0.097715 0.474813
-0.386987 -0.515556 -0.325286
0.306722 0.070208 0.421026
0.286929 -0.756450 -0.116652
-0.259919 -0.545823 -0.404206
-0.060170 -0.662051 0.235349
0.114567 -0.716449 0.202551
-0.132336 0.160195 -0.311654
0.493731 0.269315 -0.029504
-0.477658 0.409837 0.024046
-0.401838 0.361419 0.031510
0.159599 0.518890 -0.319199
-0.276088 0.409344 0.251313
-0.229267 0.442312 -0.249119
-0.250179 -0.777039 -0.277193
0.137337 -0.796265 -0.129790
-0.077760 -0.793935 -0.248744
0.281378 -0.713452 -0.109911
0.466472 0.791574 -0.077146
0.190104 0.263343 0.477771
0.385339 -0.018102 0.099440
-0.030620 -0.790148 0.078529
0.268306 -0.194214 0.201790
-0.459944 -0.344193 -0.172282
0.013411 -0.551396 0.269777
0.133263 0.408508 0.438041
0.440310 0.499481 0.164486
0.035233 -0.709105 -0.280244
0.122321 -0.692321 -0.169773
0.368506 0.823394 -0.005588
0.280180 -0.144696 0.121475
-0.011602 -0.073198 -0.129214
-0.071061 -0.244560 -0.000739
0.233442 -0.547302 0.106286
0.140859 0.651517 -0.206622
0.460170 0.408571 -0.113653
-0.428842 0.263444 0.037898
0.341562 0.101143 -0.240510
-0.148771 -0.055977 0.082128
0.516183 0.476944 -0.052876
-0.029645 -0.411405 0.280546
-0.430726 -0.299095 -0.125815
0.457095 0.844953 -0.025749
0.329286 0.325801 0.355586
0.162551 -0.373438 -0.113563
-0.267855 0.255823 -0.257733
0.178307 -0.203832 0.303255
-0.255445 0.049653 0.076178
0.380835 0.718015 0.075983
-0.149205 -0.403653 0.159834
0.124000 0.415183 -0.372165
0.152694 0.138562 0.524132
0.300756 -0.429292 0.159148
0.262904 0.612427 0.302008
0.383270 0.574097 0.153452
-0.064384 -0.545265 -0.413281
-0.249830 0.582529 0.084240
-0.432934 -0.602444 -0.080271
-0.447048 0.466683 0.014124
0.215468 0.130779 0.505848
-0.253049 -0.511440 0.165182
-0.018431 0.103552 0.507286
-0.457842 -0.463677 -0.199331
0.458025 0.774954 -0.092491
-0.221131 0.380569 -0.274101
0.248030 -0.797806 -0.066716
0.214793 -0.202420 -0.024171
0.166304 -0.123469 -0.067400
0.085002 -0.795450 0.160864
-0.403760 -0.642693 0.007095
-0.212551 0.554511 0.223421
0.322706 0.637161 -0.170677
-0.315342 -0.556843 -0.369346
0.042459 -0.213398 0.288646
0.049721 0.037400 0.466894
-0.432582 0.449116 -0.167843
0.214076 -0.570909 0.123378
0.500230 0.307760 0.034395
-0.439972 -0.418712 -0.305185
-0.079741 -0.767207 0.041217
0.553457 0.771601 -0.010580
0.473670 0.572916 -0.131092
0.496036 0.223085 -0.004818
-0.175007 0.144990 0.319021
-0.067655 -0.362946 0.224302
-0.089466 0.345549 0.407234
-0.034738 -0.583266 -0.387723
0.225521 0.716758 -0.057701
-0.365056 -0.227391 -0.227906
-0.197981 -0.784747 -0.292729
0.486430 0.290369 0.192845
0.549875 0.527353 0.010939
-0.409951 0.597845 0.018006
0.020617 -0.256170 -0.058163
-0.182164 -0.736833 0.246429
-0.218939 -0.209934 -0.239151
-0.310890 0.441427 0.047734
0.070699 -0.282087 0.331887
0.081843 -0.377756 -0.187860
-0.111281 0.401744 -0.335094
-0.158031 0.104584 -0.266399
0.045722 0.653422 -0.212017
-0.218782 0.010623 0.167125
-0.094381 -0.766950 0.076234
-0.011336 -0.134063 -0.004356
0.559548 0.572876 0.041168
0.268184 -0.497242 0.092346
0.178073 0.290859 -0.375625
0.261451 -0.014541 0.370035
-0.070735 0.224144 -0.358579
-0.162427 0.019531 0.322290
0.066540 0.636300 0.323828
0.328432 -0.040037 0.224431
0.478099 0.134465 0.167362
-0.042046 -0.249112 0.120675
0.014541 0.295937 -0.386546
0.006398 -0.289836 -0.210171
-0.042201 0.218904 0.488211
0.180823 -0.740100 0.097895
0.492074 0.467604 -0.084429
0.231431 0.045816 0.450440
-0.321484 -0.271428 -0.406969
0.253951 0.600761 -0.214993
-0.403948 0.277890 -0.140566
-0.250541 -0.564275 0.170463
-0.213341 0.165637 -0.270797
-0.280951 0.261417 -0.252648
