-0.41255501 -0.29014030 -0.07430605
-0.31853077 0.45924982 0.03562189
-0.01802274 -0.26520061 -0.14907207
-0.49246836 0.50000453 -0.00060351
0.44284073 0.23226914 0.30928111
-0.10308239 -0.04503917 -0.08973244
-0.01988026 0.38018134 0.43510234
-0.33854061 0.46087092 -0.20587340
-0.39986911 -0.25363559 -0.42874491
-0.25198075 0.31723744 0.29415047
0.07017741 -0.63132691 -0.25517496
-0.14999115 -0.58044738 0.16213526
0.09948296 -0.07684799 -0.15912999
-0.02918245 -0.22685948 0.05077022
0.46355703 0.14307135 0.24291039
0.00843203 -0.01886288 0.42172509
0.36669493 -0.03219787 0.11460443
0.25719982 -0.08243790 -0.05415357
0.31590965 0.25533485 -0.30239913
-0.02948803 0.30154318 -0.37973031
0.09759749 -0.07953521 -0.16529535
0.12195262 -0.78699100 0.17826979
-0.08239467 0.01677894 0.39905706
-0.09563147 -0.43377528 0.20463486
-0.07976480 -0.40888041 -0.42136177
-0.21367495 0.34328312 -0.28041825
-0.15121584 0.28753018 0.34550413
0.19907893 0.72265267 0.10522243
0.01345367 -0.13971725 -0.00887851
-0.14089887 -0.79351491 0.08723138
-0.02553009 0.68728513 -0.07592452
-0.43760115 -0.10031968 -0.26079088
0.26296866 0.01847979 0.40515038
-0.34720892 0.63662916 -0.01763909
0.27828690 -0.44713089 0.19133905
-0.32568383 -0.39315304 0.12440575
-0.15782259 -0.22988644 -0.21826607
0.26399910 0.51544380 0.37669763
0.04893089 0.70904493 0.17610596
0.02168756 0.57916909 0.37630290
-0.05746882 -0.64952916 0.22654092
0.24130790 0.44199178 0.39576083
0.13267851 -0.79379749 0.11351467
-0.48023301 -0.32093239 -0.28527325
-0.23026946 -0.79433316 -0.18738334
-0.20923729 -0.26496166 0.04927961
-0.34847623 -0.19922350 -0.31529632
0.10851943 -0.01499998 -0.25677460
-0.03315361 -0.11824724 0.00002732
0.03646575 -0.51494157 0.29017657
0.49507678 0.75915116 -0.08296181
-0.01920867 0.05952128 -0.29865915
0.46957374 0.27155340 0.26184377
0.34064168 0.23366290 -0.28579691
-0.00802437 -0.79415792 -0.11879703
-0.26686499 -0.25379577 0.01261346
-0.34808141 -0.68294495 0.08351809
-0.04653040 0.06196354 -0.29388687
-0.33222827 -0.35233831 -0.42462292
0.11587154 0.52835262 0.40533453
0.49932736 0.76056123 -0.07852715
0.15280078 -0.04268627 -0.21020794
-0.22463362 0.01151551 0.02657460
0.06521058 0.44173178 0.43020791
0.27326345 -0.09954928 -0.01474037
0.01770958 0.28482157 0.50304735
0.26015502 -0.46189660 -0.00930985
-0.38720450 -0.68431461 -0.10772672
-0.32265449 -0.24867919 -0.02440348
0.34161428 0.66098672 0.12081716
0.07339156 0.25219429 0.53653479
0.39113659 0.21464840 0.36337325
-0.35175461 -0.20160685 -0.28414696
0.33656296 0.63240618 0.16772503
-0.22850376 -0.79414481 0.08509408
-0.22467962 0.05849616 0.24917716
-0.06088956 0.65426016 -0.14384325
-0.37535450 -0.71173322 -0.09256499
0.30636781 -0.03773031 0.27784830
-0.32625467 0.55459899 -0.16393395
0.45359308 0.07822005 0.00308583
-0.39251778 0.50796527 -0.17254838
0.37211323 -0.02671225 0.06849219
-0.35984302 0.22457628 0.08423398
-0.04730685 0.33600095 -0.36537454
0.55750382 0.65264982 -0.02176327
0.11836836 -0.32065886 -0.10733934
0.36708182 0.47895429 -0.21546778
-0.36449307 0.11033066 -0.23118973
-0.38362488 -0.64171004 -0.24471486
0.07831786 -0.60334790 -0.23932829
0.20676501 -0.34579644 -0.08042712
0.17431833 0.43170217 0.42443082
-0.15325551 0.57093084 0.28593642
0.50634098 0.55805314 -0.10851613
-0.01556779 -0.42432654 0.27868131
-0.07577759 -0.09463396 0.02046332
-0.41514438 0.54188389 -0.14917132
-0.44828230 -0.35922179 -0.07875726
-0.18286566 0.25057855 0.32046294
0.22156416 0.72240961 0.08786654
0.25628254 0.53653079 0.37141025
-0.35133970 -0.30052477 0.04246500
-0.20273493 0.27918354 -0.29426587
0.19873498 -0.04746025 -0.16594084
-0.14326341 -0.66631716 0.21247487
0.09827176 -0.78560287 -0.21228382
-0.14801006 0.21802825 -0.32346329
-0.36587021 -0.68375361 0.02143583
-0.30143663 0.10126866 -0.01009010
0.34689003 0.75338352 -0.10373838
-0.30816644 -0.20632426 -0.29612210
0.43187368 0.45503485 0.26524091
-0.11613950 -0.06999469 0.06793535
-0.34100342 0.62900269 0.00019160
0.07034500 -0.79997569 0.11695275
0.07881124 -0.37442878 -0.18451963
-0.28971675 -0.48587847 0.15104795
0.28716797 -0.09404830 0.20081794
0.50593513 0.80294454 0.04932763
-0.14526527 -0.04014714 0.25277203
0.04141050 0.46034616 0.43052852
-0.13255866 0.65805370 0.06392386
-0.05986343 -0.07728375 -0.07219210
0.01474673 0.61468440 -0.25784174
-0.51188898 0.47518590 0.01855196
-0.30691421 0.06734942 -0.28335226
-0.11108489 0.10341583 -0.29183039
0.20701537 -0.68524039 0.09192045
0.18730141 -0.49870628 -0.08951719
-0.39438984 0.60029018 -0.10663824
0.28356096 0.75359827 -0.03492382
-0.05643197 0.50688970 0.40068597
-0.15346977 -0.72665560 -0.34456348
-0.34251902 0.27708146 0.09294604
-0.04051063 0.17272441 0.50803596
0.25550777 -0.18935844 0.24558982
0.08485653 -0.53581375 -0.24123672
0.15231767 -0.70174974 0.13156503
0.06149242 -0.05538802 -0.20906666
0.50562775 0.24764568 0.11342674
0.44482064 0.53022271 0.10984389
0.36519188 0.68913311 0.08211438
0.00215272 -0.06110015 -0.15600404
-0.44044465 -0.40372792 -0.33482510
-0.38411680 0.01581458 -0.26601285
-0.41695550 -0.50903058 0.07137831
-0.34920150 0.22293310 -0.23941547
-0.25023165 -0.36576229 0.12242155
-0.15478365 -0.46953586 -0.43357828
-0.11680740 -0.56186759 -0.41561005
0.03817026 0.53505039 -0.33187905
-0.23576075 0.03995673 0.14652994
-0.07372423 -0.03988234 0.34900036
-0.09094713 -0.09980798 0.13027772
-0.26573080 -0.48634863 0.15209404
0.21373087 -0.63080347 0.06619376
-0.47851521 -0.25025639 -0.36599305
-0.12525348 0.64146262 -0.09947507
-0.16228580 0.03730615 -0.22178575
-0.22117576 -0.57695514 -0.40783796
0.09796499 0.28278932 0.53235078
-0.10105895 -0.08689934 0.12410396
-0.13178791 -0.30656889 0.09838080
0.16652896 0.70519304 0.18530072
-0.50767666 0.53482211 -0.04408530
-0.38841143 0.53492135 0.01404017
-0.25520125 0.07084444 -0.19191477
0.45184988 0.26281291 -0.14564031
-0.12822871 -0.75859576 -0.30655330
-0.38408089 0.56494486 0.02364527
0.07018147 0.60653204 -0.25902346
-0.41835195 -0.19371575 -0.24692225
-0.26410249 0.15968901 -0.26841703
0.21403666 0.63454568 -0.20243455
0.16280174 -0.57767314 0.19273369
-0.04581133 -0.35547692 0.24331363
-0.07921798 -0.23426959 -0.08773817
-0.28593415 -0.62111795 0.15137471
0.12921983 -0.23819661 -0.05085783
0.37942708 0.63695562 0.07849295
0.33705437 0.52491391 0.29968846
-0.48618895 0.33991709 -0.05104466
-0.18099663 -0.79440486 -0.00300971
0.19695778 -0.59590882 0.14208940
-0.37693501 0.20423238 -0.15569989
-0.03208654 -0.77748013 0.04440765
0.17121889 -0.53130430 0.24112758
0.49777630 0.21473065 0.10447931
0.52218485 0.44422230 0.05338438
-0.04841393 -0.32363907 -0.33930242
-0.03933392 -0.13537729 0.12151095
0.06155350 -0.64093846 0.25165915
-0.22513551 -0.67735159 -0.36470971
-0.27621263 -0.36925337 0.11653290
-0.26653826 0.07530552 0.01253106
-0.34370950 -0.72490299 0.02118859
0.16695914 -0.59882754 -0.09104833
0.21240313 0.51389897 -0.30840102
0.05998303 -0.36264336 -0.21110445
-0.34776279 -0.46012476 0.12646854
-0.00765840 -0.07745880 0.33085215
0.04159521 -0.39490131 0.31651315
-0.17413962 0.00433586 -0.14386863
-0.40827411 -0.64615750 -0.07556018
0.11332425 -0.49931824 0.29912880
-0.05802589 -0.75220650 -0.28744459
-0.28709310 -0.78737801 -0.06589529
-0.32775074 0.43542781 0.02936583
-0.14806527 -0.23305467 -0.29005131
0.24498142 0.39867762 -0.34045810
-0.14653701 -0.05262422 0.23549028
-0.47034881 -0.38529047 -0.16908412
0.27816683 0.74844062 -0.06207109
-0.30958128 0.12486957 0.03511046
0.25629431 0.25566512 -0.33857894
-0.35738385 0.06182783 -0.21943957
-0.23302847 0.11560842 0.26411012
-0.32368982 -0.77536958 -0.13546984
-0.14002885 0.44721997 -0.30455348
-0.08265918 -0.63605869 -0.38681060
-0.24312219 0.05862081 -0.10485187
0.22928977 0.23490606 -0.34721649
0.50708842 0.71285343 -0.09296915
0.51180553 0.45905653 0.12292771
-0.37144718 -0.19311427 -0.40703773
0.06666595 -0.42125589 -0.30071300
-0.03235001 0.55847561 0.37980464
0.09072654 0.66526049 0.29231364
0.42304224 0.39089391 0.30611911
-0.36615053 0.03724269 -0.30651054
0.24596685 -0.77009368 -0.12005320
0.20021330 0.24855654 0.47600740
-0.43872079 -0.43567696 0.03121061
-0.39248353 0.18278107 -0.22463492
-0.09168913 -0.75435132 -0.29564518
-0.02636706 -0.05062623 0.36630550
0.27897495 0.56304067 -0.24285346
0.19201018 0.61659068 0.33213517
-0.16897734 0.55475962 0.29525918
0.27472606 -0.36444941 0.28360182
0.28961447 -0.05574113 -0.07226429
0.14829411 0.36528072 -0.37121382
-0.19185230 0.59425640 0.18277048
-0.28905892 -0.29289189 -0.42031872
-0.01551317 -0.18929096 0.07865100
0.17140414 0.06324053 0.47918507
0.19551888 -0.64633918 -0.11498784
0.08103516 -0.76350641 0.27360237
-0.05409000 -0.47820485 -0.40905949
0.41215906 0.39220482 0.30940622
-0.17504577 -0.79206008 -0.09875138
-0.25169235 0.55913097 0.10015452
0.29550299 0.14374733 0.45665395
0.28959522 0.10376727 -0.28349313
0.32458332 0.45802301 -0.26907113
-0.22104159 0.61893046 0.03942125
0.29880449 -0.44347012 0.12399758
-0.35046008 0.18052280 0.09615533
0.34268099 0.70519018 0.09997730
0.13830121 0.10841998 0.50587392
0.17871816 0.12785523 -0.34790850
-0.09700030 0.59677178 -0.21252683
0.11748908 -0.65189743 -0.15064839
0.46809241 0.31133458 -0.11908619
-0.40479657 -0.07785811 -0.39154175
-0.08762342 0.44928920 0.39888617
-0.42771041 -0.60853219 -0.16869275
-0.13318931 -0.07179682 0.10195032
0.24717458 -0.20775725 0.00705114
-0.44815311 -0.49710536 -0.19683202
0.24968211 0.05838768 -0.26121432
-0.34566709 -0.68663967 0.06982099
-0.22447383 0.10734966 0.29013884
0.45860785 0.75483561 -0.10113083
-0.32500997 -0.32555261 0.08157222
0.51724052 0.40824541 0.00227277
-0.25004691 0.05172763 0.13408564
0.25739864 -0.35218862 0.30655494
-0.42832452 0.48397693 0.01538512
0.13436943 -0.66826808 0.18615170
0.44059834 0.18740731 -0.17023832
-0.35750896 -0.07004246 -0.37754455
-0.02710836 0.45485336 0.43048647
0.05261504 0.07751307 0.48974589
0.00351283 -0.39161995 0.29994062
-0.39412969 0.21291161 -0.16075124
0.33438903 0.25142109 0.38406962
0.57007343 0.73352247 0.02805347
-0.28374442 -0.28955233 0.05536402
-0.31239006 0.42733824 0.09087436
0.19191904 0.10877980 0.49093178
0.18924661 0.30582798 -0.36623427
0.03032398 0.54094458 -0.32552427
-0.44857246 -0.48380846 -0.20718992
0.02851902 0.33680922 0.46804634
-0.14199185 -0.62516427 0.18587480
-0.30417258 -0.59140491 0.14713895
0.25216490 -0.50663602 0.14538522
-0.26478645 0.16612582 0.23699482
0.04902030 -0.79481429 0.16243802
0.32805642 0.02186894 -0.16367471
0.20033821 -0.22848704 0.30316401
0.07361645 -0.57102865 -0.26514885
-0.18620858 0.00591456 -0.06587474
-0.27057785 0.21850692 -0.27054238
-0.02518180 -0.25867867 -0.19655119
0.45568410 0.06319194 0.09129268
0.22272003 -0.53823930 -0.05335911
-0.04983331 -0.64451087 0.22433491
0.13441896 0.35536307 0.44114071
0.29607835 -0.46499559 0.11626481
-0.02920487 -0.12172739 0.18033649
0.44810814 0.38948137 -0.12774470
-0.01880532 -0.11963430 -0.01420218
0.04410351 0.62517279 -0.24873486
-0.39629489 0.21709163 -0.11209413
0.30805689 0.03697570 0.39333206
0.14110897 0.46402431 0.42342108
0.10106869 -0.11824870 0.29400736
0.02009558 0.70018309 -0.09783608
0.48908320 0.25060260 -0.01826066
0.05393546 -0.41673765 0.33894515
0.21952964 -0.09102176 -0.09760016
-0.32507539 -0.74751794 0.02830898
0.25182226 0.47522062 0.38998386
-0.01575140 0.60469532 -0.25434825
-0.42001048 -0.32270870 -0.40007216
-0.31331190 -0.20194261 -0.14820018
0.29700926 -0.44517261 0.10177311
-0.26809365 -0.78980923 -0.15155585
0.29737774 0.61255711 -0.18632936
0.01100626 -0.77670926 -0.04913881
0.47251895 0.51728892 0.09609339
0.46909586 0.84561080 -0.01783494
-0.48527896 0.46274430 -0.10078299
0.48423773 0.20517929 0.19402289
0.43812340 0.34260079 0.29364350
-0.33650586 -0.29620713 0.04628614
0.33910570 0.55166745 0.29080743
-0.04071297 -0.46421319 -0.40905157
-0.31157488 -0.03756759 -0.29975832
0.19724102 0.43117499 0.41662672
-0.43115774 -0.55531889 -0.19829394
0.28770006 -0.28781828 0.21112706
-0.36475718 -0.53607386 0.13218415
-0.33581555 -0.00061982 -0.33337680
0.13814569 0.16438445 -0.36773199
-0.35865417 -0.35749146 0.08272770
-0.04049855 -0.79609549 0.12253635
0.32913730 0.75081921 -0.10002251
0.20862563 -0.09166670 -0.11245930
-0.11154298 -0.08278628 0.13087726
0.48318258 0.44050825 -0.08269317
-0.37988377 0.33336014 -0.19113503
0.23534237 -0.64685833 -0.04675122
-0.13227183 0.09080622 0.39428911
-0.26392740 0.07725824 -0.08490251
-0.08978920 0.13269734 -0.33360571
-0.41723394 -0.11844428 -0.40398857
-0.05313693 0.66157424 -0.12507896
0.45244026 0.30667630 -0.17088762
-0.25183043 -0.66999799 -0.36411038
0.10043020 -0.56289631 -0.17517185
0.30236039 0.75135636 -0.06639907
0.30703181 -0.07991609 0.12194677
0.10450751 -0.06207121 0.38832799
-0.06838011 0.09487642 -0.30853492
-0.41924381 -0.42319253 -0.34836531
0.36776471 0.27562630 -0.26051483
0.38193029 0.31175730 0.34718543
0.27083927 0.41242447 0.38334885
-0.00865441 -0.49933279 -0.40096676
0.34814858 0.38633659 0.34609145
0.19281991 -0.08432548 0.33226326
-0.30400118 -0.02202195 -0.30978018
0.17791237 -0.45450419 0.30065420
-0.13134067 -0.30465448 0.10289383
0.07007582 0.64390677 0.31076926
0.38349029 0.07721598 -0.18670104
0.08835263 0.21393311 0.53293324
-0.28619638 0.07192419 -0.11442165
-0.02982091 0.70925039 -0.00592247
-0.28064245 0.59802759 0.03869494
-0.28923905 -0.76738369 -0.24608457
0.48401764 0.68492889 0.06242195
0.14678296 0.51804805 0.40033400
0.28183007 0.17125061 0.46845573
0.28873402 -0.34582192 0.00625473
0.16869566 -0.15014593 0.29026949
0.22392984 -0.09200379 -0.09749883
-0.38969651 -0.25884584 -0.13988380
-0.40333825 -0.23891020 -0.22088590
0.47842410 0.11328162 0.07796486
-0.01052856 -0.73417300 -0.28376049
0.22524075 0.20387280 0.52332330
-0.02016270 0.21583439 -0.37218484
-0.39709532 -0.59835362 0.06911854
-0.35111099 0.14724298 -0.15464184
0.14635542 -0.23148575 0.32825962
-0.37880442 -0.56524056 0.11010583
-0.14401998 -0.05662601 0.24321659
-0.36372140 0.34755570 -0.22114715
0.11461285 -0.78879404 0.17716908
0.32059968 0.60025054 0.24366036
0.10865527 -0.61817014 -0.15816502
0.23688135 -0.55084866 0.04322056
-0.27930805 -0.72156912 0.16529268
0.23073845 0.72577637 0.10081376
0.51134789 0.67754018 -0.09657960
0.22782752 -0.51400894 0.17340177
-0.26902163 -0.63891387 0.16624358
0.27987871 0.39480373 0.37041780
0.09897541 -0.26986146 -0.06823164
0.34452909 0.55987364 -0.20204480
-0.27923799 -0.47378606 0.16164581
0.39866722 0.03726730 -0.08994469
0.18252067 -0.16563176 0.27738625
-0.31074527 -0.21343568 -0.27023879
0.36383274 0.67978501 -0.15380181
0.47142938 0.34227717 0.20228873
-0.19559288 -0.42006323 0.14909503
0.46492958 0.18789580 -0.10791035
0.26836061 -0.48618531 0.03549608
0.41672170 0.53358608 0.14739469
-0.39103779 0.22882913 0.01000519
-0.13087955 -0.58353287 0.17983681
0.34866005 -0.00827893 -0.11143084
-0.26082626 0.09474246 0.21199742
-0.04535630 -0.64641410 0.24488612
0.07977702 0.12027652 0.51231396
-0.19715725 0.48123151 0.32028019
0.31064612 0.78163165 0.09658974
0.01062892 -0.30032310 0.28868246
-0.09093525 -0.53567547 -0.42210552
0.09189872 0.52643502 0.41523069
-0.01297924 0.37181371 0.44153485
-0.18125306 0.14882508 0.32318476
-0.47730094 0.46742034 0.01403936
-0.05417081 -0.76837832 0.00999672
-0.29331335 -0.24470443 -0.02432872
0.38900277 0.16956215 -0.21221733
0.11636081 -0.79769194 0.10911958
0.14200018 0.68390423 -0.14899647
-0.36788240 -0.56030923 -0.30077168
0.08749389 -0.76705718 0.24120469
-0.33776116 -0.23669934 -0.06491183
-0.17721863 -0.77871192 -0.29734489
0.33158740 0.48478371 0.29368845
-0.33234432 0.43786818 -0.22428334
-0.35235238 -0.13080604 -0.29556295
0.29467890 -0.07174909 0.23321991
-0.07668758 -0.54544467 -0.43028131
0.27758670 -0.73745990 0.01417870
-0.01737921 -0.07022218 -0.13867161
0.18869883 0.45861080 0.41128975
-0.47188047 -0.21710911 -0.26255909
0.29966351 -0.43526334 0.06780248
-0.12949204 0.03923203 0.38127774
-0.46395123 -0.34905484 -0.16240707
-0.27212742 -0.76763302 0.18556267
-0.32276455 0.13065857 -0.11944520
0.53209376 0.52624887 -0.07256104
0.10094209 -0.75601554 0.20532513
0.30255216 0.38641039 -0.30960622
0.17399810 -0.79784393 -0.06909838
-0.39144793 0.21771678 -0.18934639
-0.31696650 0.07745131 -0.28966749
-0.48110682 0.47751796 0.02001899
-0.34757665 0.52731591 -0.17455122
0.47902161 0.87658632 0.03765409
-0.45612338 -0.32307190 -0.13524763
0.49252200 0.74580061 -0.08713783
0.28616029 0.31123316 0.38582692
0.00590875 -0.52403396 0.28226316
-0.41693646 -0.38647163 -0.37138510
0.15194972 0.53256261 -0.31548184
0.24514377 -0.04018188 0.33217898
-0.38954738 -0.04246221 -0.38270047
0.10439354 0.25254187 0.55004799
0.19160359 0.08543006 -0.31259799
0.30162677 0.14018744 -0.29278332
-0.07221112 -0.10702232 0.08638100
0.23813412 -0.55820066 0.03975005
-0.50446713 0.42989841 0.01201827
-0.39482099 -0.68070960 -0.08427668
-0.20118292 0.54284829 0.27830958
0.41640431 0.07676412 -0.12982634
0.05984594 -0.10468020 -0.10305183
0.33443540 0.03686592 0.34958115
0.24562892 0.71756476 -0.08208665
0.04716030 0.26056102 -0.38983953
-0.35036090 0.14539631 -0.15774058
0.51116467 0.42788014 -0.00840256
0.36647519 0.13697934 -0.23897937
0.27559826 0.53731930 0.36425915
-0.07546614 0.00631979 -0.21850181
0.28957227 -0.20932850 0.07875351
-0.25241247 0.50323558 0.20860201
0.34339634 0.32539606 0.36250907
0.42846218 0.09775451 0.29757378
-0.50724536 0.48116341 -0.07719746
-0.29368067 0.10867795 0.10760430
0.05126533 0.51333559 -0.34627464
0.25294167 0.17626414 -0.32766387
-0.21496798 0.21979319 -0.28684255
-0.00310799 -0.41191614 -0.37518725
0.09694868 0.02115437 0.46805644
0.08523341 -0.69313407 0.23298584
0.07665334 0.22934367 -0.38986054
-0.21729529 -0.79943138 -0.19381249
0.24330814 0.72135067 -0.05459331
0.31204379 0.37127602 0.36125541
0.03803377 -0.24409303 -0.03304662
-0.44697127 0.60533613 0.02020561
-0.03536884 0.68627995 0.15700310
0.13751189 -0.24962738 0.32779014
-0.29901788 0.39247423 0.18429631
0.49248859 0.25801507 -0.00031760
0.49533334 0.31710893 0.14955233
-0.25692505 0.61117423 -0.06943411
-0.26457116 0.02535173 -0.27117294
0.44941616 0.07746843 0.17987858
-0.30006358 -0.64233124 0.15804599
-0.06811815 0.46430323 -0.34262583
-0.45607910 -0.51033413 -0.02038486
-0.08329202 -0.77353054 0.26607764
0.55537575 0.66877347 0.05335867
0.15827827 0.71077919 0.18003337
-0.05766970 0.47379163 -0.33829498
-0.04323723 -0.50673240 0.25202209
0.12098445 -0.28001204 -0.07706638
0.30679294 -0.08197913 0.12357651
-0.26051328 -0.49187893 -0.41374102
0.11288660 -0.69231361 -0.17101268
0.17587776 -0.44303617 0.29945555
-0.30181101 0.01710536 -0.31880385
-0.31988323 0.55164886 -0.16251458
-0.00421226 0.64089793 -0.20470907
-0.48608810 0.53534436 -0.10155047
-0.45569161 -0.18792716 -0.36350805
0.42810813 0.38573584 0.29097918
-0.08460755 0.03969742 -0.25815469
-0.17939016 -0.01299818 0.22002983
-0.20249957 -0.00419689 0.16044866
0.03416841 -0.66715890 0.25529242
0.15795292 -0.79633552 -0.03912491
-0.20898046 0.50609970 0.30558094
0.54330951 0.60146421 -0.05289724
-0.33443144 0.17517164 -0.08387713
0.05036807 0.67614293 0.27255061
0.11849160 -0.58391947 0.22521250
-0.40895468 -0.47025651 -0.33236623
0.45430911 0.10205685 0.25374749
-0.31360093 0.12628770 -0.02657211
-0.04708754 0.62790072 -0.19692621
-0.42978829 0.32083285 -0.14501074
0.15179117 -0.13325705 0.27812111
-0.21589094 0.09859620 0.28474933
0.46678224 0.86065418 0.06401436
0.26295334 -0.77821529 -0.12879534
-0.33332840 -0.04954389 -0.33443499
0.12091192 0.29718232 -0.38198757
-0.05106407 -0.70051229 -0.32340458
0.22655021 -0.42493573 -0.06400377
0.43345261 0.83513308 -0.02464380
-0.15650456 -0.53231007 -0.43199152
-0.02416022 -0.59694183 0.23615445
-0.32554513 -0.39132527 0.10740221
0.47610149 0.39179787 -0.06068687
0.11926042 0.44741732 0.43409944
-0.38560939 0.21149595 -0.06873210
0.07925545 -0.69788104 0.27166390
0.11420701 -0.56067014 -0.14863290
-0.06867541 -0.24479598 -0.03546053
-0.08804380 -0.73113233 -0.32895833
0.11536719 -0.56261778 -0.15580353
-0.01523380 -0.21550383 0.16345340
-0.02538527 0.63915414 0.29295382
0.07569322 -0.34774908 -0.19553936
-0.06471481 -0.49996710 -0.41685638
0.50645876 0.64663309 0.06983069
0.08456871 0.36289537 0.44841257
0.31344134 0.69163322 0.11709390
-0.47473875 -0.35159034 -0.28103477
0.16887371 0.64346457 0.29145998
-0.13196398 -0.61401981 0.19090481
0.35776457 -0.03540449 0.08307087
-0.25828934 -0.78293532 0.12981084
0.33878890 0.79646659 -0.03140029
-0.23244819 -0.71513164 0.21084827
0.08056673 -0.31870395 0.32828498
0.25972551 -0.66407746 -0.07676474
-0.06964479 0.69620615 0.02081857
-0.35020977 -0.68822026 -0.23818034
-0.08197325 0.35675767 -0.34677494
0.39180627 0.01272985 0.16198418
0.17452314 -0.65018851 0.13822770
0.30376410 0.28283608 0.38569283
0.30584806 0.24938998 -0.30325231
0.37173077 0.77037162 -0.10505970
0.00775470 0.71287835 -0.04835290
-0.31413615 0.46531519 0.04840431
0.07567816 0.25266576 -0.38633838
-0.35800877 0.45187342 -0.20922518
0.20729271 0.27971339 0.44358480
0.07976395 -0.69327253 0.25813332
-0.46087879 -0.18438117 -0.39538372
0.27175307 -0.30163676 -0.01687589
-0.28951466 0.40554821 0.23741592
-0.12248167 -0.63544232 -0.39410982
-0.38262698 0.01371776 -0.19696026
0.11462663 0.29644549 0.50016081
-0.08781280 -0.04410309 -0.12764861
-0.17561029 -0.64854240 -0.38583040
0.14452069 -0.59181601 0.19701898
-0.31076837 -0.56797183 0.15285189
0.13600075 0.29876220 0.50230265
-0.13569815 0.49653676 0.35108650
-0.01976170 0.66531789 0.25789627
-0.22689235 0.55582148 0.20343533
-0.16648006 -0.79162121 -0.16194296
0.53254420 0.57202172 0.07906258
0.22402667 -0.47121274 -0.06016969
-0.07770533 0.55427021 0.35842714
-0.24967292 -0.76595384 -0.28185195
0.28660724 -0.35014865 0.25924578
-0.25481817 0.32312456 -0.26774907
-0.32677120 -0.61561108 0.13727877
0.06822975 0.20049942 0.54552037
-0.28985643 0.53855968 -0.17080159
-0.27048334 0.52286661 0.10362822
-0.50366223 0.48631224 -0.07020156
0.41782996 0.59825391 -0.15921441
-0.09244362 0.03753406 0.41256183
0.19146869 0.20594233 0.51123023
-0.28451726 0.60850537 -0.07019926
0.51120329 0.49889204 0.09859020
0.04861983 0.06766680 0.48947558
-0.23662204 0.60672683 -0.06178755
0.09317762 0.47009614 -0.35254055
-0.23061308 0.15299143 0.27649862
0.20467797 0.31421599 0.41361246
-0.16351803 0.52566105 0.32004604
-0.24312899 0.45918292 0.27707511
0.14360611 0.05738655 0.47468865
-0.24455312 -0.25854272 0.03300801
-0.02860151 -0.14212143 0.08062394
-0.34087446 -0.64814830 -0.29959315
-0.39517334 -0.26280081 -0.12381887
-0.32077998 -0.10207176 -0.26293164
0.19404766 -0.59340000 0.13147002
-0.15552677 -0.78895622 -0.15818280
0.44015115 0.06209748 0.17329000
-0.43241072 0.26788348 -0.04446085
-0.33253917 0.18472868 0.09618766
-0.34005737 -0.22830668 -0.11115438
-0.26415703 -0.51766831 -0.42122233
-0.17781827 -0.78894532 -0.27614301
-0.01224380 0.60317260 0.34809315
0.45390537 0.11050144 -0.06804236
-0.03679746 -0.05059641 0.36684877
-0.20973149 0.22320877 -0.29260445
0.26304030 -0.73282790 -0.11463146
-0.15243469 -0.22046223 -0.20233347
0.23107228 -0.06387313 -0.13495401
-0.37838259 -0.16752155 -0.40643081
0.09179702 0.63617116 -0.23965612
0.28388342 0.02744601 0.39559656
0.17132565 0.67127532 -0.18287343
-0.05831000 -0.67961651 -0.34807271
0.36910108 0.31810188 -0.26217553
-0.49610293 0.57583547 -0.00529546
0.31921282 -0.31694448 0.11544549
0.01453860 -0.47327334 0.29807773
-0.22457489 0.10144143 -0.24137831
-0.44845772 0.38182175 -0.13949981
0.21156953 0.39948365 -0.34551197
-0.31982100 0.60971403 -0.08918606
-0.18491037 0.47139382 -0.26968047
-0.27563885 -0.68272084 -0.33366117
0.07913719 -0.27986839 0.33343995
0.06898451 -0.77751213 0.27062386
-0.01566194 -0.22337532 0.21315047
-0.02292783 0.61635762 0.32834759
-0.02650119 -0.08763104 -0.08353518
-0.46576652 0.35370281 0.03163680
-0.17686442 0.26440310 0.32365915
-0.00255809 -0.76931894 0.32504797
-0.26898888 0.08708580 0.16213888
0.19452372 0.27097574 0.46485975
-0.42005834 -0.57940871 -0.21413693
-0.35624713 0.29326466 0.07470270
-0.21182631 -0.79537910 0.09169321
0.42364514 0.84575152 0.05390626
0.24183808 -0.07986666 0.29505327
0.52373487 0.43160599 0.02466852
-0.09413967 -0.36561367 0.17292883
0.12236325 0.28179586 0.52571040
-0.40773061 -0.00378811 -0.25363407
0.14911769 0.48674428 0.42660412
-0.41424412 -0.28852645 -0.40948215
0.28991178 -0.78632855 -0.06531247
-0.13834719 0.64320582 -0.07129566
0.04140656 0.00926442 0.44461057
0.13850015 0.20316483 0.53567743
-0.26215288 0.11573928 -0.27427313
0.24885714 0.31168464 0.39969552
-0.00196071 -0.79367894 -0.25984639
0.27976868 -0.77917230 -0.08886097
-0.07933974 0.45895088 -0.33077848
-0.28868923 -0.48623323 -0.40620953
-0.11572589 -0.60766590 0.17068514
-0.46691263 -0.44937986 -0.07571925
0.32459092 -0.04295810 0.20869517
-0.26103768 0.56794637 -0.14070296
-0.27245247 0.22483416 -0.26930797
0.48554927 0.13411789 0.14045176
-0.14520761 -0.54378533 0.17400846
0.43664497 0.33917120 -0.17902194
-0.02522125 0.64876360 -0.20725051
0.44318974 0.77806371 -0.09382406
-0.05351135 -0.79897141 -0.16575453
0.15344316 0.41791677 -0.35982084
-0.28683844 0.10456479 0.05324736
0.27611747 -0.76316291 -0.10533427
-0.13981274 0.63027215 0.23110203
-0.33036697 -0.76759952 -0.00097413
-0.37635499 -0.46375716 0.10541169
0.49781838 0.33836448 0.01472899
0.17048846 0.69107640 0.23305732
0.21024284 -0.13591224 0.24822500
-0.16327980 0.52580786 0.32260895
0.36897281 -0.01887684 0.20315039
0.00018787 0.01832080 0.45683718
0.47096825 0.34919387 -0.09274979
-0.16458511 0.27479148 -0.31582403
-0.39834306 -0.21610247 -0.42469981
-0.10464869 0.57708400 -0.22987413
-0.19953234 -0.22701132 -0.26673847
-0.29538670 -0.78714311 0.00827441
0.46689296 0.27264100 -0.09704985
0.46418965 0.42379797 -0.11831866
0.42331651 0.03195316 0.14186332
0.18827166 0.64792281 -0.19888979
-0.14373723 -0.60071039 -0.40606144
-0.04866530 -0.55427438 0.23463660
0.33337411 0.62819570 -0.17631699
0.00633116 -0.10503836 0.29925999
-0.06975415 -0.24636847 -0.08073535
0.29015523 -0.43675843 0.07093705
-0.11378643 -0.78686184 -0.25360847
0.25746998 -0.23469388 0.24088849
-0.19242661 0.00157792 0.24308740
0.22871424 -0.21254480 0.28030461
0.22069927 0.72896045 0.04814428
-0.22467712 0.61364943 0.05033139
0.07989495 0.47952574 -0.34752902
-0.12150958 -0.22211131 -0.16473769
-0.39235607 -0.50095993 0.09387546
-0.13631405 -0.62480664 0.17787056
0.28832474 -0.25716969 0.18825814
-0.42455605 0.53160495 0.00934124
-0.00321882 -0.10453410 -0.09391907
-0.37349871 0.19431067 -0.21727586
-0.17485875 0.06962202 0.32686076
0.41852927 0.03169026 -0.00848855
0.31850740 0.44730437 -0.26727179
0.04653041 -0.79712284 0.11525525
-0.11790329 0.24422772 0.37967616
-0.29304135 0.38902286 0.22700940
-0.11168721 -0.06418344 0.22363317
0.22522737 -0.58094031 0.04406261
-0.33214769 0.03413484 -0.17140566
-0.33304933 0.59849823 -0.10042404
0.24543354 0.36698055 0.38771799
-0.15527874 0.60867596 0.22526884
0.07507833 0.23761520 -0.38746625
0.47367457 0.48183087 -0.11067821
0.23747210 -0.17054258 0.23698336
0.22270876 -0.55370963 0.04862068
0.20515688 -0.52058047 -0.06114296
0.46170443 0.86591512 0.05230174
0.00666909 -0.54896218 -0.37302706
0.18606134 -0.32019347 -0.07753324
0.17935337 0.24281603 0.50279433
0.47131261 0.14218587 0.17657289
-0.23120204 0.59878451 0.04549216
-0.13706502 -0.79720384 -0.26486647
-0.00162158 -0.23462641 0.22736692
-0.07876801 0.61715949 -0.21053430
-0.26868665 0.53451616 0.10170192
0.43788937 0.45993558 -0.14503513
-0.37404945 0.62731671 -0.05746073
0.41064838 0.03801544 0.22964290
-0.30162913 -0.22179240 -0.08374263
-0.34761915 -0.16638692 -0.31691238
-0.02010548 -0.30195951 -0.28260505
-0.50574422 0.58866149 -0.03450457
0.35270071 0.35066566 0.33933434
-0.09368306 0.45705390 -0.32641333
-0.38875461 0.62238067 -0.00787956
0.31260958 -0.40841779 0.09575383
0.51333892 0.81484973 0.05562395
0.04249659 -0.42862007 -0.32503781
0.33947957 0.19398621 -0.27214643
-0.40205020 -0.62567091 0.03027166
0.20669787 0.59907699 -0.24147442
0.43563792 0.05149553 0.16849531
0.46445796 0.27397782 0.26956433
0.29579675 0.46137935 -0.29337785
0.47509164 0.28945532 0.24623184
0.49464464 0.25118500 0.01765013
-0.07736776 -0.35585865 -0.38265863
0.04967716 -0.79636151 -0.10610577
-0.09432219 -0.79003423 0.10729331
-0.01012213 -0.72870213 -0.29166678
-0.35248676 0.20995936 0.10115445
-0.01719492 0.15776286 0.51810873
0.09106641 0.08529548 0.49969193
-0.10327043 -0.01250821 0.36363652
0.13050455 0.57561880 0.38293025
-0.07209304 -0.77840525 0.09167525
0.09084380 -0.76405668 -0.24204972
0.02641987 0.03149368 -0.28004149
0.27895123 0.75379419 0.00550759
0.45617992 0.83807021 0.07096004
-0.31195739 0.14624771 0.12764230
-0.36028495 0.50288028 -0.18058588
0.14207909 -0.38696972 -0.13712524
0.29968068 -0.33588326 0.20813832
0.18980512 -0.59530818 0.13394213
0.50207436 0.23970434 0.15057030
-0.37891468 0.15538377 -0.22699550
-0.02758361 0.65278774 0.26293081
-0.01592481 -0.45801654 -0.39942300
-0.25958070 -0.78390574 0.18316475
0.37919861 0.03282367 -0.11186893
0.21929213 -0.51315707 -0.05021867
-0.46659228 0.55119902 -0.10816172
-0.29036331 0.54980624 -0.16772120
-0.16884488 0.48772949 -0.27278924
0.09904698 -0.02317182 0.44408467
0.02038494 -0.10613397 -0.07996518
0.27935639 0.10482779 0.45628560
-0.02497781 -0.12287050 0.00850418
-0.36617482 -0.54317045 -0.33859858
0.26012343 0.25912681 -0.34286371
-0.30222175 0.03782529 -0.30796218
-0.29107925 0.34110469 0.23604546
-0.08509764 -0.08826058 0.18661757
-0.11418070 0.63000244 0.24555609
0.17344229 -0.46007892 -0.11530659
0.48718503 0.13528991 0.08712476
0.12748566 -0.32474980 -0.10750537
-0.17193593 -0.23504016 -0.28988689
-0.01525407 -0.28862360 -0.23821837
-0.10651399 -0.24454045 -0.25426191
-0.23377767 -0.76554698 -0.28364146
-0.26419342 0.19489387 0.24476497
0.06680141 -0.58369529 0.24913926
-0.02372313 -0.26184258 -0.12720393
0.28370756 -0.16681306 0.16523716
0.11348146 -0.24490482 -0.07266140
0.38673994 0.19477408 -0.23371783
-0.04263281 -0.11088340 0.20600171
-0.21823157 0.59871000 0.11404964
0.35907066 -0.02156974 -0.03046454
0.14424622 -0.38614205 -0.12680340
0.27278411 -0.13474707 0.18706082
-0.02662625 0.40210471 -0.36795729
-0.38568836 -0.47022158 0.10655254
0.15471390 -0.01454675 -0.24365413
0.00255013 0.71090394 0.15137893
0.49981007 0.78976762 -0.05245516
0.32705003 -0.75834650 -0.09926739
-0.44997689 -0.39484236 0.00933803
0.27991802 -0.17941482 0.15833110
-0.21725428 0.21256466 -0.27308103
-0.10579734 -0.22872683 -0.07451802
-0.24725905 -0.71813011 -0.32856825
0.43563390 0.33747503 0.30357870
0.26858163 -0.01608302 0.34080628
-0.31929481 0.14406329 -0.02587864
-0.29185128 0.09017593 -0.27240017
-0.13287066 0.46951061 0.36540353
-0.38711727 -0.50268573 -0.33237454
-0.25305489 -0.57405746 -0.40079793
0.25153893 -0.66996527 -0.05257103
0.09711911 0.13679832 -0.35899660
-0.25749066 0.46142629 0.25244707
-0.49809474 0.42172480 -0.06040560
-0.26927832 0.07901116 -0.10015716
0.00498186 0.19686292 0.52429986
-0.33553183 -0.40100613 0.11984727
0.15254794 0.04247807 0.46903196
0.54256141 0.77090961 -0.03089740
-0.28418753 0.30869177 0.26843303
-0.15112717 -0.75054133 0.25394562
0.50420690 0.26637173 0.10656930
0.03154676 -0.35483181 -0.24457502
0.49683732 0.37644309 0.12362209
-0.19337919 -0.71716756 -0.35287216
-0.46151862 -0.22613478 -0.38763866
-0.28785774 -0.44571468 0.14837766
-0.37545946 0.37089759 -0.20824769
0.47435731 0.19796456 0.21995178
0.09573736 -0.67548043 -0.18090910
-0.27600399 0.61432213 -0.01484345
-0.35897392 -0.52660871 -0.35188034
0.24464266 0.68047726 0.20633033
0.49672040 0.24513511 -0.01939861
0.25581819 0.67754382 0.19093658
-0.33996913 -0.09442653 -0.35287708
-0.03648983 0.68243414 -0.08896147
-0.40935031 -0.58110201 -0.25612536
0.43736699 0.22742505 -0.17072164
0.29719359 -0.41060874 0.20823474
0.19331042 0.62171394 -0.21935061
0.36634934 0.19719978 -0.25023100
0.29053378 0.49947417 -0.26900998
-0.07258724 -0.01603518 0.38557848
-0.38389820 -0.68940586 -0.04832724
-0.02784275 -0.40461689 -0.39887711
-0.28866616 -0.41147462 0.12952054
0.05793952 -0.53522956 0.28098506
0.48444027 0.15424666 0.19527003
-0.07538699 0.63424176 0.26445356
0.36954486 -0.01922860 0.12979341
-0.24353251 0.57250315 0.11596120
-0.35749045 0.62331492 -0.04709457
-0.39035639 -0.21485819 -0.27750257
0.09993154 -0.52393919 -0.18939054
0.20933712 0.60574389 0.32852817
0.24008434 0.05401351 -0.28175941
-0.19713917 0.52185690 -0.23472002
-0.41537023 0.36942884 -0.17419446
0.05585243 -0.06743714 0.36962554
0.08544536 0.14169317 0.51963013
-0.36569756 -0.22878808 -0.41567603
-0.14841270 0.56175828 -0.21765837
0.29213089 -0.10827602 0.10884915
0.36845374 0.13853571 -0.22163513
-0.11790943 -0.48916477 0.18513471
-0.11144021 -0.37970766 0.18763593
0.05627280 -0.02448638 0.43189707
-0.35875276 -0.74524075 -0.06681382
-0.26195294 0.06753723 0.01762524
0.45956194 0.77893651 0.06460401
-0.05140960 -0.24138594 0.03709689
-0.30046722 0.47417146 0.04743482
0.12548047 0.60298222 0.34839761
-0.26169872 -0.19582908 -0.15191662
0.53585380 0.47373238 0.01805502
-0.15108681 0.63964868 -0.05039514
-0.44574919 0.45391837 -0.16923365
0.27404809 -0.04330868 0.30075136
-0.17790037 0.47362268 -0.27367759
-0.30805343 -0.70197189 -0.29887179
-0.14490910 0.34015492 0.36213019
-0.13766906 0.01878379 0.34279141
-0.03575956 0.01192149 -0.24585369
0.23638514 -0.79497415 0.00363948
-0.03530006 -0.56752706 0.24101207
-0.10666467 -0.27863970 -0.32836747
-0.43672869 -0.37331730 -0.34849370
0.29115677 0.04838432 -0.24165723
0.08215723 -0.29028943 -0.09350288
0.25810507 0.67670071 0.19215959
0.23903461 -0.43968159 -0.03895202
0.10112909 -0.78212589 -0.21273929
0.03155211 -0.32993084 -0.23213753
-0.46434706 -0.40688708 -0.09899829
-0.06846686 -0.71782446 -0.32074791
0.00281358 -0.41415420 -0.36243504
0.12309967 -0.55723906 -0.12625763
-0.44688237 0.55308920 -0.12044290
-0.43592510 0.34734055 -0.13399409
0.43364432 0.42054358 0.28605285
-0.28935665 0.01258030 -0.29729599
-0.26597205 -0.79079288 0.02955544
0.26324207 0.49135467 0.38647243
-0.19450912 0.05348428 -0.23254049
0.38506141 0.02584250 -0.10519871
-0.19083531 0.34352359 -0.29829741
-0.07006610 -0.59597021 0.20909870
-0.15082663 0.20993900 0.34468961
-0.01217708 0.70336008 0.14405543
0.13742831 0.17059435 -0.37332723
0.02418843 -0.79622519 0.14949776
0.32681844 -0.02511327 -0.07029580
-0.32662874 0.21995813 0.13686472
-0.34688801 0.29564133 0.09550473
0.45183364 0.09526528 0.18099004
-0.15624690 -0.79473168 -0.27152172
0.09224512 -0.45665056 -0.20906132
0.49465862 0.67299992 -0.12358432
-0.12636219 0.31957376 -0.33728087
0.38986564 0.39945465 0.32765648
0.22227576 0.50395924 -0.29920283
-0.40847933 0.54878205 -0.13022454
0.05664511 -0.72169131 0.31158385
-0.35969746 -0.43756014 0.10797148
0.01019121 -0.79528832 -0.07440785
-0.06103553 -0.39359459 -0.40689149
0.19055970 -0.67999864 0.09502536
-0.34642071 -0.44059163 0.13532522
-0.08262663 0.22179320 -0.35678789
0.18868953 0.35068086 0.40724275
-0.16148245 0.38999885 -0.30595422
0.18949284 -0.11262800 0.27732044
0.27602386 -0.33359095 0.25602853
0.13158014 -0.73227334 0.15774101
-0.14294295 -0.06023472 0.19355366
-0.51650953 0.51415610 0.00172840
-0.07961965 -0.23251864 -0.18158668
-0.04278702 -0.49899822 -0.41284430
-0.36581478 0.22820960 0.09504115
0.03926896 -0.37958384 0.32404345
-0.10483475 0.23458919 -0.34587836
0.22067282 -0.00663064 0.41744232
0.51495457 0.66199243 -0.10655013
0.28037974 0.57449901 -0.22515216
-0.03681974 0.30311692 0.43143928
0.14665154 -0.28025165 -0.07622219
-0.43873814 -0.53369302 0.01556464
-0.09145962 -0.05973598 -0.05568402
0.02933764 -0.79194385 0.24382509
-0.05620985 -0.01139370 0.39721960
0.51493847 0.50680649 -0.04189579
0.18494847 0.09112593 0.48435581
-0.27320352 0.22149321 0.24481346
-0.27353692 0.47715354 0.19088709
-0.19665194 -0.61622024 0.17849611
0.33509833 0.72260964 0.08686407
0.03451182 -0.38444263 -0.32784721
0.45811743 0.07761455 0.17213778
0.26903015 -0.07073212 0.27344710
0.13376653 -0.07250641 -0.14812823
0.13539065 -0.80356020 -0.12071915
0.34952852 0.00015121 -0.11171974
-0.07189309 -0.79114282 0.23268344
0.24172585 0.25248417 -0.34855950
-0.09783937 -0.25355136 0.00627753
0.38761380 -0.01248120 0.08828997
-0.39439833 0.22040556 -0.03054861
-0.08450539 -0.67572594 0.23485450
-0.40279636 -0.07202768 -0.23911479
-0.19015443 0.62150258 0.12495065
-0.40995824 -0.65902138 -0.08021095
0.55853671 0.69658625 0.04009507
-0.43607512 0.34832400 -0.13887183
-0.18416394 -0.78512192 0.21152796
0.41094261 0.10049970 0.31029832
0.24211486 -0.30289757 0.29419875
-0.12717253 -0.79265773 -0.19957297
-0.22890052 -0.32429072 -0.41196507
0.40638700 0.18846491 -0.20172998
-0.36902374 0.04353385 -0.28823510
0.16830839 0.71682626 -0.00196007
-0.16015802 -0.38131839 0.14320809
0.41487852 0.70902461 0.07810502
-0.24688110 0.07714139 0.22117063
0.17134139 0.71853775 -0.01150764
0.25580946 -0.78631842 0.00530400
0.19809783 0.00548052 -0.26275519
-0.14681463 0.46168068 0.37065527
0.37229183 -0.01169362 0.19675550
0.23634940 0.66625226 -0.16687232
0.22999367 0.61173117 0.32505277
0.06466153 -0.17074256 0.28900808
0.09007429 -0.64036173 -0.18503034
-0.03844193 -0.28328422 -0.27734149
0.42373407 0.40744594 0.28603208
-0.13643101 -0.78497338 0.02936380
0.33492011 0.04538305 -0.20681927
0.36660427 0.55542547 0.21615857
-0.37695441 0.05015367 -0.24621296
0.04956003 0.16396163 -0.36449406
-0.20199595 -0.79881608 -0.09867468
-0.27107137 -0.78663224 0.10228355
0.26360282 -0.37621081 -0.02042871
0.22608618 -0.13758430 -0.00299997
0.22642557 0.68811822 -0.12674977
-0.20716971 0.51046062 0.30074576
-0.21084432 -0.00294088 0.09710509
0.27108467 -0.22832316 0.05133383
0.44344577 0.86068642 0.03659775
0.29423189 -0.37888032 0.20910428
0.15641356 -0.00362966 0.44805691
-0.31738004 -0.00361824 -0.32106501
-0.08117273 -0.01330872 0.36439630
-0.44242665 0.29215485 -0.03350283
-0.07345323 0.51183718 0.38625214
0.12304083 -0.11401945 -0.08553697
0.33137649 0.04777418 -0.20611109
0.12262299 -0.79590511 -0.05772156
-0.35288578 -0.24755323 -0.05415636
-0.30641946 -0.35691416 -0.42305043
-0.34786621 0.00498868 -0.33643916
-0.45272940 0.60337836 -0.07186505
0.08712418 -0.49311912 -0.16770525
0.22908881 -0.79660761 -0.05550717
0.37077790 0.10792083 0.37213388
-0.46239391 -0.44593653 -0.20146111
0.10431735 -0.71757084 0.22517221
0.02090572 -0.69275075 0.28116417
-0.09883081 -0.48647612 -0.43600613
0.49029526 0.32698944 0.17870927
0.42074287 0.12506354 0.31713068
-0.23940495 -0.78973871 0.12968203
-0.49635065 0.56996304 0.00947108
-0.04700720 -0.55896056 -0.41165268
-0.29224578 0.47325337 0.07789025
-0.16203997 -0.02254243 -0.03911183
0.26069862 0.29926300 -0.34168211
0.31350297 0.31784990 -0.30421633
0.01349001 0.28216529 0.50920844
0.26111996 -0.21215080 0.20388119
-0.34128058 0.23260896 -0.25119802
0.18250677 0.24242404 0.49249735
-0.49961269 0.45399222 -0.09750555
0.30588463 0.15920788 -0.29776976
0.27376139 -0.12482901 0.18656830
0.50788736 0.32823205 -0.00760805
0.18877491 -0.76745349 -0.14084309
0.08692407 -0.74604195 0.25402632
0.18451270 0.32311293 -0.37000597
-0.48166060 -0.31707922 -0.30080447
0.11050610 0.41428056 0.43721700
-0.04979194 -0.10817441 0.20091580
0.29862994 0.12512356 -0.27634647
0.41092420 0.52189267 0.18837617
0.07002283 0.39730352 0.44482338
0.38900784 0.32566315 -0.25420955
0.37869114 0.18120326 0.38316447
-0.29916418 0.10671843 0.04164103
0.44531560 0.06001391 0.01939246
0.40777382 0.79255366 0.09059305
-0.26286051 0.34879294 0.29181486
-0.23730966 -0.59942609 -0.39342955
-0.25614092 0.56074834 0.11189682
-0.22097191 0.57718086 0.14376028
-0.41555873 -0.50174016 -0.28962964
0.25611043 -0.06969766 0.29666069
0.32071304 0.78795731 0.04915507
0.13594598 -0.02341103 -0.23988029
0.42447346 0.75288463 -0.12007561
-0.20540239 -0.68724912 0.21828860
-0.10501024 -0.08067378 0.22766346
0.13863358 -0.78805006 -0.03232519
-0.36832061 0.04660638 -0.29114246
0.28951424 -0.46378264 0.12233632
0.49862695 0.45943403 -0.05884765
0.00038625 0.25854039 0.51079774
0.47360185 0.46482262 -0.11666729
0.41999236 0.04969016 -0.08209985
0.45255893 0.13099046 -0.08457743
-0.20868546 -0.56436354 0.16338232
-0.06647230 0.44317073 0.41382107
-0.15061802 0.26711833 0.33774871
0.31520739 0.05014073 -0.21540564
0.36385953 0.08188057 0.35637009
-0.18644637 -0.26623228 0.04097389
0.01636011 0.09540681 0.49967706
-0.13548237 0.02988578 0.35987252
-0.41453838 -0.62974328 -0.08562073
0.14497595 -0.65183723 0.18582977
0.02438181 0.68440062 -0.16218664
-0.07267772 0.01459395 -0.23958263
0.17075256 -0.08943000 0.33092570
-0.34388986 -0.73012400 0.04273055
0.09318887 0.65267158 0.30024406
-0.32420051 -0.06014100 -0.21569136
-0.17463583 0.35473654 0.34792784
-0.39977911 0.36534268 0.03033432
0.52827603 0.83187020 -0.00935055
0.35716382 0.73004085 0.09056365
0.47963601 0.41046813 0.17611486
-0.00480107 -0.02589160 -0.21877971
0.28168729 0.30413878 0.37338862
-0.25466681 -0.24312183 -0.01310056
-0.07347190 -0.67268455 -0.35571980
0.40174621 0.05261835 0.27163655
-0.43163499 -0.27559710 -0.18269980
-0.43230826 -0.12817150 -0.40157381
0.46135557 0.71708399 -0.11966252
-0.20735273 0.43761948 0.33599934
-0.01591595 -0.16645415 0.16851206
0.22076498 -0.02938362 -0.19047503
0.30033752 -0.70301592 -0.04758858
0.13641736 0.25318789 0.52580607
-0.13412966 0.25868118 0.36751208
-0.15750237 0.42560473 -0.29969263
0.34512255 0.32775369 0.35472095
0.23396374 0.48816061 0.39167267
0.15112627 -0.30289376 0.33450770
0.07736017 -0.74244308 0.25533193
0.13225068 -0.39631990 -0.13991523
0.03526954 -0.17215867 -0.00423432
-0.32251400 -0.29918033 0.04008499
-0.41134939 -0.08483153 -0.22664380
-0.22955757 0.08208603 -0.24788317
-0.42247277 -0.57774460 0.02630663
0.24921522 -0.49960113 -0.01665098
-0.03281999 -0.31162697 0.23930903
0.50822997 0.30372643 0.11597569
-0.08281197 0.65521842 -0.09937192
0.24163750 -0.11267154 -0.02038889
-0.43939695 -0.40177298 0.03481655
-0.16412653 0.53905690 0.31263140
-0.36843053 -0.44190562 0.10104547
-0.04146498 -0.70554364 0.26938826
0.15266678 0.40538824 0.43192503
-0.26006061 0.07264974 0.19139735
0.03681697 -0.27654213 -0.08999012
-0.31780675 -0.76807594 0.02811619
-0.44464213 0.57559180 -0.11264272
0.07127342 -0.27794930 -0.07894322
0.34992966 0.28880194 -0.27052796
-0.19890408 -0.37562463 -0.43310332
0.23674774 -0.21597107 -0.00346479
0.03159389 -0.69952989 -0.26181829
0.07230213 -0.79491651 -0.00236983
0.21452543 -0.02814971 -0.18770780
-0.40903717 -0.50927502 -0.29476207
0.51621377 0.61515230 0.06851690
-0.51177096 0.52444100 0.00423552
0.02038198 0.26333919 0.53177691
-0.41952738 -0.35368425 0.00740321
-0.08491758 -0.48965997 0.21943223
0.18531072 -0.54540771 -0.08183420
-0.02449821 -0.46852475 -0.39711460
0.37528706 0.68796939 0.08674183
0.18025118 -0.31340843 0.32679340
-0.40711921 0.25148886 0.05909912
-0.12111624 -0.61144328 0.17922656
0.24624982 -0.05610826 0.31184208
0.43179536 0.50283539 -0.16393946
0.46487671 0.33626011 0.24246046
0.47852108 0.29694614 0.22111899
0.55922580 0.52771550 0.03335869
0.03874085 -0.20870188 -0.00711872
0.15973169 0.68234712 0.23196708
-0.23743916 -0.62901700 0.17948914
0.40642279 0.04363541 -0.10549624
0.35843083 0.74613476 0.09226516
-0.40071446 0.27092487 0.07023260
-0.11074516 -0.04970346 0.28480142
-0.42456779 0.39679551 -0.18599802
0.21052094 -0.08634458 -0.09288067
-0.31748527 0.36358470 0.10002241
0.44812033 0.26026118 -0.14493564
0.15243015 -0.05654908 0.39387298
-0.06764762 0.42933270 0.42055896
0.06928439 -0.65522712 -0.22806340
0.45740852 0.30954131 -0.16465099
-0.16694050 -0.46570909 -0.44182757
-0.48666453 -0.21502098 -0.32045287
0.49367374 0.81355947 -0.02648517
-0.09382281 0.21112947 0.39914295
0.35773847 -0.02877788 0.19104257
0.09668234 0.66130704 0.29309177
0.22987814 -0.03837358 0.36897004
-0.36328211 0.18842100 0.05095409
0.21151634 0.34742546 -0.35273001
0.22942746 0.18887158 -0.33967245
-0.40396339 -0.14984319 -0.24928433
0.40161386 0.22565730 -0.22380313
0.41197214 0.28438267 -0.22424117
-0.45889181 -0.10109010 -0.29941857
0.23968898 -0.34582084 -0.03975140
0.10196515 -0.78031498 -0.21326295
-0.24494967 0.04567479 0.19819370
0.37224916 0.45425141 0.33849230
0.11491267 0.57766891 -0.28686154
-0.47904140 0.60286045 -0.06992511
0.00159132 -0.36443913 0.30087736
0.43236625 0.53571856 0.14552870
-0.03086178 -0.42036346 -0.40342602
-0.33615291 0.60723680 0.03261013
0.26239786 0.74008834 -0.04526714
-0.09545629 -0.27926031 -0.32541430
-0.46485168 -0.17438042 -0.28161427
-0.10287641 -0.06482152 -0.00434177
-0.02009637 -0.52642202 -0.39360240
-0.22870523 -0.78910458 -0.18523289
-0.26351789 -0.78873175 -0.08378989
-0.37546772 0.20381506 -0.02344693
0.22033688 0.12290838 -0.32637385
-0.12984961 -0.24690220 -0.01255022
0.21970020 -0.24489889 0.29157746
0.04348586 0.15678498 -0.36819926
0.05806431 0.12681277 0.51419663
-0.39766458 0.57932758 0.00777991
-0.23009571 0.47869629 0.28464383
-0.20791338 0.49224538 -0.23145714
0.14423253 -0.78711486 0.04231782
0.36586723 0.65866554 0.07762689
-0.39108989 -0.45362031 0.09558536
0.13701731 0.32053667 0.47140557
0.27437067 0.21396175 0.44759017
0.35216850 0.00978342 -0.12497555
0.14187157 0.41663706 -0.35943854
0.01643687 0.12024547 0.51805502
-0.06375966 -0.10285850 0.04125755
-0.11849849 0.53784072 0.34216923
-0.15716945 -0.46057576 0.15946105
-0.37996382 -0.36075392 0.06470174
0.06347468 -0.22904485 -0.03661966
0.06376636 -0.79379171 0.07676339
-0.25839585 -0.77148050 0.15436284
-0.37266293 0.56710947 -0.13485257
0.18439759 0.61173213 0.34188548
0.41573718 0.39809111 0.31465515
-0.25026330 0.56901383 0.10171901
0.16015685 -0.44614837 -0.12877244
0.56730396 0.59967542 -0.00032849
0.35340452 0.48841995 -0.22423735
0.02358573 -0.35560074 -0.29243669
-0.23726574 0.03161395 0.06072579
-0.38670030 -0.58433783 0.09145212
0.37316552 0.80789179 -0.04578634
-0.18328673 -0.31978124 -0.39990059
0.24850471 -0.44522396 0.25205219
-0.07892129 0.16153535 0.45292333
0.32781515 -0.05105945 -0.00610055
-0.14347696 -0.06068175 0.13473231
-0.09138052 -0.76983941 0.06586586
-0.00800315 -0.08391331 -0.10993412
-0.06133272 0.20322116 0.45733565
-0.32095706 0.21490747 -0.27466971
0.15045361 0.07359175 -0.31000835
0.12104525 -0.00449976 -0.26455951
0.40203807 0.65360117 0.05883769
-0.11636910 0.58076537 0.30193150
-0.48239464 0.35611719 -0.00343597
0.13304527 0.51695573 0.41222614
-0.28425020 0.35332608 0.24306525
-0.04896810 -0.24566609 -0.09934589
0.28374177 -0.11842602 0.09055403
-0.49602687 0.52062881 0.00859233
0.08303836 0.33390030 0.47434089
0.57668018 0.61647302 0.02057947
0.30579445 -0.71740347 -0.09549493
0.23503968 0.24052718 -0.36095071
-0.41843265 0.24326770 -0.03172918
-0.14101329 -0.22671247 -0.08456478
0.00724165 -0.73333538 0.32569969
-0.42206839 -0.52699810 -0.25752929
0.39921564 0.40730217 -0.22250915
0.24887344 -0.04326085 0.32670197
-0.17139634 -0.26480660 -0.34340444
-0.16471048 -0.79724348 -0.06122560
-0.03520812 -0.33292842 0.26519045
-0.32037303 0.18036123 0.12376277
-0.45254692 -0.48629409 -0.07573909
0.31221205 -0.26284289 0.09789864
-0.14845964 0.01704291 -0.16922496
0.02308843 0.66177320 -0.20385920
-0.15570186 0.04408276 -0.20304804
-0.25316805 -0.60773724 0.16659802
0.03544901 0.14155284 0.51690066
-0.10926446 -0.77728671 -0.00445220
0.08744074 0.67578584 -0.15694809
-0.44057566 -0.37537482 -0.00518239
0.56099844 0.74506027 0.03869484
0.20042180 -0.05043433 -0.17636749
0.04999693 -0.32187361 -0.18677589
0.17484838 0.71121234 0.19785625
-0.22983828 -0.77597243 -0.27770945
-0.29863030 -0.20670114 -0.15871839
0.04025854 -0.10229886 -0.11190788
-0.04726052 -0.12580174 0.10658320
0.09478182 0.18100905 0.52800488
0.17164952 0.56922537 0.38450310
0.36246943 0.63332015 0.11454453
0.01675326 -0.37437415 -0.33071592
-0.02316626 -0.20983058 0.13452008
-0.15973642 -0.35967511 0.12858589
0.11424053 -0.56908262 -0.14187077
-0.44022751 0.33459705 -0.13344929
0.00282688 -0.65474045 -0.31254944
0.52789426 0.61264360 -0.07181919
0.29473430 0.21466333 0.42702225
0.27105090 -0.75671291 -0.14366710
-0.36996683 0.04182692 -0.21826774
0.00051305 -0.79220480 -0.24276754
-0.02531786 -0.66949803 0.25939977
-0.34566820 -0.41694826 0.11854506
0.45880160 0.59156340 0.07026678
0.10551757 0.69105685 -0.13138342
